ply
format ascii 1.0
element vertex 1664
property float x
property float y
property float z
end_header
-0.361428 1.399950 0.336462
-1.774585 8.959394 0.492711
-2.262268 8.959382 0.584252
-0.495856 4.925635 -1.862465
-0.761779 4.959182 -1.863946
-2.893712 8.917059 -1.721103
-3.424525 8.958628 -1.674879
-1.114752 4.950453 -1.839561
-1.411901 5.027812 -1.838750
-0.880627 4.363011 -1.854869
-1.131543 4.397238 -1.853435
-1.789349 5.042346 -1.834585
-2.087357 5.055445 -1.814618
-1.453226 4.375195 -1.837038
-1.732123 4.423425 -1.832177
-0.718862 6.947531 -1.887350
-1.102878 7.092885 -1.874651
-0.454194 5.730944 -1.832991
-0.765460 5.762443 -1.828501
-1.593540 7.143215 -1.864350
-2.043103 7.313313 -1.863625
-1.166306 5.811157 -1.820058
-1.518801 5.909625 -1.817299
-2.582507 7.404059 -1.847366
-3.061069 7.504461 -1.829497
-1.961375 5.990134 -1.820628
-2.319861 6.020183 -1.799951
-0.888919 8.560800 -1.411187
-1.428491 9.030557 -1.423136
-0.708783 8.584879 -1.863618
-1.190192 8.747806 -1.844175
-2.004764 9.013805 -1.373357
-2.471452 8.974099 -1.287526
-1.793918 8.979449 -1.849916
-2.294789 8.957563 -1.785382
-0.864328 8.553112 -1.032866
-1.387354 8.976916 -1.046870
-0.458713 1.373250 0.273862
-0.482664 1.351002 0.285007
-1.961387 8.993769 -0.994968
-2.442113 8.972727 -0.913324
-1.772995 9.024993 -1.480819
-2.252462 8.962118 -1.410477
-3.050632 8.981775 -0.851560
-7.183163 17.976818 -1.805240
-2.845611 8.948920 -1.343964
-3.356116 8.953300 -1.289406
-0.867395 8.512479 -0.141131
-1.392168 9.005150 -0.075283
-0.697325 8.611544 -0.606124
-1.201107 9.008490 -0.554920
-1.944288 8.974361 0.002552
-2.434312 8.952815 0.085065
-1.759665 8.977003 -0.489596
-2.241329 8.942452 -0.407331
-3.024574 8.923287 0.159599
-0.503475 1.327982 0.213030
-2.830466 8.937963 -0.332376
-3.357275 8.973967 -0.278305
-0.156034 1.348899 0.291486
-0.190758 1.394272 0.309900
-0.690683 8.546452 0.330727
-1.187554 8.970492 0.411084
-0.310752 1.331013 0.316699
-0.357028 1.401079 0.336462
-1.745673 8.960998 0.492585
-2.233130 8.962570 0.584087
-0.481906 4.943746 -1.869309
-0.745624 4.957889 -1.862442
-2.872813 8.948535 -1.725799
-3.392157 8.958327 -1.672638
-1.102734 4.970287 -1.846191
-1.393049 5.021445 -1.834443
-0.867946 4.371116 -1.857362
-1.120479 4.411373 -1.858335
-1.774110 5.049713 -1.835286
-2.071463 5.061978 -1.814618
-1.440035 4.381483 -1.837838
-1.719569 4.432273 -1.833733
-0.699981 6.980322 -1.896346
-1.078512 7.083005 -1.870837
-0.437264 5.747418 -1.838243
-0.747603 5.766694 -1.829150
-1.569868 7.142532 -1.862753
-2.019595 7.317834 -1.863111
-1.147324 5.811068 -1.818788
-1.498323 5.907000 -1.814830
-2.556726 7.404801 -1.845387
-3.030871 7.497852 -1.825219
-1.943126 5.998085 -1.821228
-2.296107 6.014946 -1.795882
-0.864121 8.585094 -1.415108
-1.398881 9.027212 -1.421781
-0.682104 8.590946 -1.864529
-1.160601 8.736038 -1.840647
-1.976017 9.018132 -1.373032
-2.441147 8.974195 -1.286309
-1.756414 8.937084 -1.839241
-2.260812 8.941972 -1.780465
-0.837455 8.555785 -1.032866
-1.358846 8.979273 -1.046594
-0.454396 1.374684 0.273862
-0.478418 1.352512 0.285007
-1.932302 8.996006 -0.994446
-2.413914 8.980354 -0.913324
-1.739122 9.001539 -1.475352
-2.225257 8.972970 -1.411173
-3.018633 8.980000 -0.850218
-3.493191 8.858394 -0.778596
-2.815724 8.952165 -1.342977
-3.322433 8.948997 -1.286911
-0.845597 8.566882 -0.143262
-1.364177 9.011455 -0.075346
-0.669973 8.609720 -0.605746
-1.172014 9.006292 -0.554415
-1.914028 8.970643 0.002776
-2.407748 8.966208 0.084986
-1.730712 8.978568 -0.489290
-2.220494 8.978485 -0.409341
-2.994004 8.925154 0.159639
-3.505198 8.909186 0.252068
-2.805332 8.956347 -0.332955
-3.322776 8.967629 -0.277387
-0.151796 1.349382 0.291486
-0.186377 1.394865 0.309900
-0.664129 8.552569 0.330785
-1.159106 8.972196 0.411039
-0.306569 1.331982 0.316699
-0.352624 1.402193 0.336462
-1.716033 8.958580 0.492333
-2.202552 8.959846 0.583676
-0.467522 4.958133 -1.874632
-0.731722 4.971199 -1.866954
-2.847042 8.964999 -1.727365
-3.361218 8.961589 -1.671144
-1.085176 4.964633 -1.842508
-1.377770 5.027594 -1.835161
-0.856578 4.386332 -1.863180
-1.103438 4.402493 -1.852619
-1.755204 5.046401 -1.831781
-2.056982 5.071938 -1.815980
-1.426821 4.387731 -1.838638
-1.703625 4.432505 -1.831399
-0.678228 6.984397 -1.896908
-1.057999 7.097772 -1.874106
-0.421141 5.777034 -1.848091
-0.730712 5.778393 -1.832393
-1.549830 7.158742 -1.865947
-1.995053 7.318552 -1.861569
-1.124116 5.788556 -1.809903
-1.479290 5.909834 -1.814213
-2.531590 7.407289 -1.843903
-3.010943 7.516341 -1.827595
-1.925998 6.009617 -1.823027
-2.279253 6.027491 -1.797626
-0.835112 8.566216 -1.411187
-1.370817 9.033508 -1.422120
-0.654260 8.581394 -1.861794
-1.138539 8.780251 -1.849909
-1.941514 8.995339 -1.368160
-2.409834 8.970374 -1.284483
-1.728695 8.944476 -1.839668
-2.229356 8.935743 -1.777596
-0.810934 8.562315 -1.033442
-1.330040 8.979581 -1.046042
-0.450076 1.376105 0.273862
-0.474167 1.354008 0.285007
-1.903628 9.000091 -0.994184
-2.382089 8.974470 -0.911635
-1.710836 9.006958 -1.475352
-2.193744 8.966535 -1.408737
-2.986053 8.976226 -0.848653
-3.488673 8.928550 -0.785239
-2.785265 8.953424 -1.341661
-3.291557 8.951982 -1.285663
-0.818865 8.571486 -0.143344
-1.335563 9.013719 -0.075283
-0.642211 8.601852 -0.604800
-1.142176 8.998071 -0.553404
-1.885432 8.974652 0.002820
-2.376462 8.962138 0.085144
-1.694452 8.940834 -0.485922
-2.188929 8.971856 -0.408403
-2.960953 8.919315 0.159720
-3.452325 8.856866 0.251742
-2.770156 8.942208 -0.331566
-3.291816 8.970531 -0.276980
-0.147556 1.349852 0.291486
-0.181995 1.395443 0.309900
-0.636973 8.550622 0.330727
-1.129637 8.965878 0.410811
-0.302383 1.332939 0.316699
-0.348218 1.403294 0.336462
-1.683146 8.938375 0.491512
-2.173918 8.964780 0.583594
-0.451786 4.957734 -1.873871
-0.712818 4.951478 -1.857929
-2.813622 8.957044 -1.723843
-3.326847 8.955544 -1.667782
-1.071485 4.977117 -1.846191
-1.362466 5.033697 -1.835879
-0.839801 4.372905 -1.855700
-1.092742 4.418325 -1.858335
-1.739343 5.051889 -1.831781
-2.041748 5.080117 -1.816661
-1.415237 4.399184 -1.841840
-1.693018 4.446426 -1.835289
-0.654732 6.969289 -1.891848
-1.031143 7.070610 -1.865388
-0.400900 5.746281 -1.836930
-0.714235 5.793797 -1.836933
-1.526148 7.157916 -1.864350
-1.962384 7.289356 -1.851802
-1.109749 5.812568 -1.816884
-1.461182 5.916296 -1.814830
-2.507694 7.413368 -1.843408
-2.984426 7.518551 -1.825694
-1.901988 5.999248 -1.817628
-2.263699 6.043568 -1.800532
-0.809808 8.586435 -1.414395
-1.341547 9.031924 -1.421105
-0.626346 8.569809 -1.858604
-1.106693 8.750896 -1.842411
-1.909603 8.984012 -1.365238
-2.381131 8.975990 -1.284179
-1.708133 8.990195 -1.848635
-2.202694 8.948401 -1.778826
-0.784033 8.564820 -1.033442
-1.300956 8.977835 -1.045214
-0.445751 1.377512 0.273862
-0.469911 1.355490 0.285007
-1.873351 8.996315 -0.992878
-2.355411 8.987667 -0.912359
-1.686443 9.033565 -1.479361
-2.159956 8.950421 -1.404560
-2.959073 8.989341 -0.849100
-3.457715 8.932053 -0.784409
-2.755400 8.956468 -1.340675
-3.258652 8.949297 -1.283479
-0.791935 8.574017 -0.143344
-1.306948 9.015891 -0.075221
-0.615731 8.611774 -0.605557
-1.108645 8.960094 -0.549866
-1.856431 8.976612 0.002910
-2.346249 8.961827 0.085250
-1.672110 8.977495 -0.488371
-2.159317 8.972871 -0.408001
-2.929825 8.919065 0.159770
-3.451332 8.936625 0.252097
-2.740313 8.945134 -0.331219
-3.263619 8.980826 -0.276980
-0.143315 1.350309 0.291486
-0.177610 1.396008 0.309900
-0.610382 8.556573 0.330785
-1.097974 8.941608 0.410174
-0.298195 1.333882 0.316699
-0.343808 1.404381 0.336462
-1.655775 8.947552 0.491639
-2.141512 8.954084 0.582853
-0.434837 4.942537 -1.867027
-0.699135 4.966529 -1.863194
-2.785471 8.965838 -1.723843
-3.299381 8.967793 -1.668155
-1.055844 4.980459 -1.846191
-1.348120 5.043355 -1.838032
-0.828349 4.388049 -1.861518
-1.075756 4.409338 -1.852619
-1.717509 5.039569 -1.824770
-2.021555 5.076043 -1.812574
-1.400318 4.400108 -1.840239
-1.683659 4.463765 -1.840736
-0.633002 6.973223 -1.892410
-1.007255 7.062390 -1.862119
-0.383432 5.756940 -1.840213
-0.692756 5.769728 -1.827853
-1.502487 7.157010 -1.862753
-1.944003 7.312281 -1.856429
-1.093875 5.829084 -1.821327
-1.446255 5.935628 -1.819768
-2.486220 7.426727 -1.844892
-2.964377 7.536915 -1.828071
-1.884259 6.008839 -1.818828
-2.253449 6.073938 -1.808090
-0.781622 8.575214 -1.411900
-1.313168 9.036095 -1.421105
-0.599032 8.565904 -1.857236
-1.081397 8.771748 -1.846381
-1.883764 9.001563 -1.367186
-2.351403 8.977694 -1.283266
-1.682709 9.010890 -1.852051
-2.167096 8.924862 -1.772269
-0.758966 8.588934 -1.036613
-1.272738 8.981879 -1.045214
-0.441420 1.378906 0.273862
-0.465649 1.356961 0.285007
-1.844288 8.998271 -0.992356
-2.320622 8.970056 -0.909222
-1.656650 9.031078 -1.477903
-2.131820 8.957166 -1.404560
-2.922877 8.974007 -0.846192
-3.433934 8.954005 -0.785654
-2.723829 8.953750 -1.338701
-3.231189 8.961349 -1.283791
-0.765160 8.578453 -0.143426
-1.278611 9.019954 -0.075221
-0.587758 8.599759 -0.604233
-1.084147 8.993204 -0.552393
-1.825855 8.970640 0.003179
-2.316558 8.963350 0.085329
-1.643185 8.978781 -0.488065
-2.120853 8.936927 -0.405052
-2.901171 8.926325 0.159780
-3.423953 8.949292 0.252106
-2.707603 8.938402 -0.330293
-3.229249 8.974139 -0.276063
-0.139071 1.350753 0.291486
-0.173222 1.396559 0.309900
-0.583621 8.560444 0.330814
-1.066466 8.917229 0.409536
-0.294002 1.334813 0.316699
-0.339393 1.405454 0.336462
-1.628002 8.954679 0.491702
-2.104081 8.921897 0.581208
-0.419304 4.943880 -1.867027
-0.684573 4.976040 -1.866202
-2.756712 8.972671 -1.723451
-3.261020 8.950453 -1.662552
-1.040930 4.987395 -1.847664
-1.331780 5.045764 -1.837314
-0.812949 4.381678 -1.857362
-1.066268 4.430423 -1.860785
-1.703434 5.050275 -1.826873
-2.007689 5.087609 -1.814618
-1.387025 4.406238 -1.841039
-1.663736 4.453532 -1.833733
-0.611087 6.975178 -1.892410
-0.984512 7.061710 -1.861029
-0.364673 5.746801 -1.836274
-0.677131 5.792536 -1.834987
-1.475388 7.139024 -1.856363
-1.923004 7.325825 -1.858485
-1.074210 5.825027 -1.818788
-1.426238 5.934600 -1.817916
-2.453821 7.406880 -1.837471
-2.948502 7.566080 -1.833300
-1.869829 6.029328 -1.823627
-2.235686 6.084577 -1.809252
-0.755504 8.587433 -1.413682
-1.284201 9.036275 -1.420428
-0.574342 8.602727 -1.865441
-1.046679 8.717019 -1.833149
-1.855861 9.009372 -1.367511
-2.322180 8.981215 -1.282657
-1.653343 9.010366 -1.850770
-2.139040 8.931627 -1.772269
-0.743823 8.570393 -1.033730
-1.257506 8.976024 -1.044110
-0.439253 1.379598 0.273862
-0.463517 1.357690 0.285007
-1.830152 9.001157 -0.992356
-2.310527 8.989061 -0.911152
-1.644194 9.043346 -1.479725
-2.120499 8.971995 -1.406648
-2.889951 8.919923 -0.839258
-3.419865 8.959388 -0.785654
-2.708630 8.954236 -1.338043
-3.213076 8.955267 -1.281919
-0.752021 8.583628 -0.143589
-1.264441 9.021951 -0.075221
-0.574756 8.608619 -0.604989
-1.109317 9.317350 -0.579856
-1.811763 8.973496 0.003179
-2.297951 8.949558 0.085567
-1.631181 8.993130 -0.488984
-2.114224 8.971302 -0.407197
-2.874338 8.890871 0.159991
-3.409175 8.952792 0.252097
-2.695271 8.948383 -0.330640
-3.210401 8.966049 -0.275349
-0.136949 1.350970 0.291486
-0.171029 1.396830 0.309900
-0.570174 8.561350 0.330814
-1.085588 9.192824 0.415821
-0.291905 1.335273 0.316699
-0.337185 1.405986 0.336462
-1.614284 8.959192 0.491765
-2.088220 8.917414 0.580878
-0.411970 4.950065 -1.869309
-0.677275 4.980779 -1.867706
-2.742048 8.975111 -1.723060
-3.246283 8.953717 -1.662178
-1.032360 4.985379 -1.846191
-1.326265 5.056866 -1.840904
-0.809889 4.404441 -1.867336
-1.055832 4.417907 -1.854252
-1.694912 5.051166 -1.826172
-2.005959 5.106478 -1.820748
-1.379565 4.406659 -1.840239
-1.662602 4.471651 -1.840736
-0.600760 6.983782 -1.894659
-0.974767 7.072774 -1.863754
-0.354997 5.736049 -1.832334
-0.665555 5.772929 -1.827853
-1.462270 7.131883 -1.853701
-1.902105 7.293334 -1.848718
-1.066390 5.834175 -1.821327
-1.418264 5.942379 -1.819768
-2.445186 7.419938 -1.839945
-2.930948 7.556231 -1.829497
-1.856473 6.019479 -1.819428
-2.227455 6.091670 -1.810415
-0.741524 8.582725 -1.412612
-1.268607 9.028524 -1.418735
-0.559983 8.590013 -1.862250
-1.033221 8.720588 -1.833590
-1.840928 9.008408 -1.366861
-2.307076 8.981023 -1.282049
-1.634715 8.987948 -1.845219
-2.125925 8.938782 -1.773088
-0.717850 8.584522 -1.035460
-1.229851 8.983853 -1.044662
-0.434917 1.380971 0.273862
-0.459250 1.359140 0.285007
-1.799949 8.997132 -0.991049
-2.278329 8.980891 -0.909222
-1.612716 9.031035 -1.476445
-2.091399 8.974778 -1.405952
-2.878153 8.980103 -0.845297
-3.381783 8.944065 -0.782748
-2.676008 8.947568 -1.335412
-3.182263 8.957879 -1.280671
-0.726512 8.603873 -0.144327
-1.232772 9.002123 -0.074473
-0.548071 8.616344 -0.605557
-1.115743 9.621597 -0.605465
-1.783181 8.977180 0.003223
-2.267839 8.948984 0.085672
-1.599825 8.980530 -0.487606
-2.082832 8.964303 -0.406258
-2.853037 8.920829 0.159880
-3.368948 8.931678 0.251934
-2.663196 8.943400 -0.329830
-3.179528 8.968567 -0.274942
-0.132705 1.351393 0.291486
-0.166640 1.397360 0.309900
-0.543277 8.563099 0.330814
-1.094351 9.515898 0.423153
-0.287709 1.336183 0.316699
-0.332767 1.407038 0.336462
-1.585789 8.962251 0.491702
-2.069298 8.962846 0.582524
-0.395176 4.934732 -1.862465
-0.662132 4.986553 -1.869210
-2.703724 8.949858 -1.716016
-3.218808 8.965719 -1.662552
-1.016693 4.988597 -1.846191
-1.307035 5.048374 -1.835879
-0.792293 4.385459 -1.857362
-1.044522 4.431849 -1.859152
-1.681944 5.065367 -1.829677
-1.983694 5.097013 -1.814618
-1.364650 4.407463 -1.838638
-1.650485 4.482028 -1.843071
-0.578969 6.987547 -1.895221
-0.955708 7.098676 -1.870292
-0.337999 5.756001 -1.838900
-0.647417 5.774992 -1.827853
-1.440234 7.138333 -1.854234
-1.885532 7.323584 -1.855401
-1.046423 5.828155 -1.818154
-1.403583 5.963454 -1.825322
-2.430190 7.453403 -1.846872
-2.908601 7.569023 -1.830448
-1.837006 6.023453 -1.818828
-2.207649 6.096841 -1.809834
-0.715031 8.590898 -1.413682
-1.239965 9.030514 -1.418397
-0.533340 8.597562 -1.863618
-0.977404 8.483573 -1.778897
-1.810319 9.002531 -1.364913
-2.277869 8.984397 -1.281440
-1.607148 8.996887 -1.846073
-2.100096 8.954940 -1.775137
-0.689504 8.568977 -1.032866
-1.200819 8.981783 -1.043834
-0.430577 1.382330 0.273862
-0.454978 1.360576 0.285007
-1.770922 8.998850 -0.990527
-2.248642 8.982229 -0.908498
-1.583670 9.032183 -1.475717
-2.064088 8.985141 -1.406648
-2.846356 8.977723 -0.843955
-3.353670 8.954644 -0.782748
-2.648441 8.957823 -1.335741
-3.151464 8.960382 -1.279423
-0.699013 8.600135 -0.144081
-1.204215 9.003969 -0.074411
-0.520659 8.612061 -0.604989
-1.120955 9.931913 -0.631580
-1.753460 8.974884 0.003403
-2.238734 8.952187 0.085725
-1.570254 8.977651 -0.486994
-2.056916 8.980521 -0.406928
-2.824402 8.927839 0.159890
-3.341578 8.944088 0.251944
-2.637322 8.959390 -0.330293
-3.149339 8.972863 -0.274636
-0.128459 1.351803 0.291486
-0.162249 1.397877 0.309900
-0.516489 8.566759 0.330843
-1.099501 9.825208 0.430166
-0.283510 1.337080 0.316699
-0.328345 1.408076 0.336462
-1.557290 8.965217 0.491639
-2.039785 8.963460 0.582277
-0.380068 4.941485 -1.864746
-0.644730 4.975753 -1.863946
-2.680600 8.975235 -1.719538
-3.187975 8.968390 -1.661058
-1.002086 4.997241 -1.848401
-1.291641 5.054262 -1.836597
-0.778513 4.387927 -1.857362
-1.028901 4.428004 -1.855885
-1.669480 5.081320 -1.833884
-1.969727 5.108473 -1.816661
-1.351851 4.415240 -1.840239
-1.629990 4.469916 -1.835289
-0.557888 7.000815 -1.898595
-0.934434 7.109272 -1.872471
-0.320589 5.770241 -1.843496
-0.629059 5.775117 -1.827204
-1.418908 7.148499 -1.855831
-1.866859 7.346316 -1.860027
-1.029714 5.840760 -1.821327
-1.390973 5.993752 -1.833963
-2.402053 7.446232 -1.842913
-2.870871 7.541855 -1.820940
-1.820791 6.038339 -1.821827
-2.186526 6.098349 -1.808090
-0.687284 8.583290 -1.411900
-1.211858 9.036317 -1.418735
-0.506111 8.595305 -1.862706
-0.951641 8.494351 -1.780661
-1.780142 8.998488 -1.363289
-2.248179 8.985760 -1.280527
-1.578877 9.001892 -1.846073
-2.073740 8.969115 -1.776776
-0.664195 8.592812 -1.036037
-1.172074 8.981585 -1.043282
-0.426232 1.383676 0.273862
-0.450702 1.361998 0.285007
-1.735962 8.969309 -0.985824
-2.218488 8.981544 -0.907532
-1.555616 9.039052 -1.476081
-2.031889 8.974303 -1.403516
-2.816371 8.980927 -0.843284
-3.315767 8.939052 -0.779841
-2.615903 8.950938 -1.333110
-3.122646 8.968375 -1.279111
-0.672442 8.608268 -0.144327
-1.175660 9.005727 -0.074348
-0.493279 8.607689 -0.604422
-0.926703 8.483725 -0.508082
-1.724886 8.978385 0.003447
-2.210601 8.959175 0.085725
-1.541048 8.976641 -0.486534
-2.026470 8.977212 -0.406258
-2.791014 8.919474 0.159981
-3.307173 8.937679 0.251857
-2.602534 8.944606 -0.328904
-3.118493 8.975171 -0.274228
-0.124212 1.352200 0.291486
-0.157857 1.398379 0.309900
-0.489574 8.568339 0.330843
-1.104711 10.152526 0.437589
-0.279308 1.337964 0.316699
-0.323920 1.409101 0.336462
-1.528129 8.964149 0.491449
-2.010731 8.965926 0.582113
-0.364290 4.938963 -1.863225
-0.631515 4.996128 -1.871466
-2.643590 8.953489 -1.713276
-3.149269 8.948733 -1.655080
-0.985331 4.994887 -1.846191
-1.274826 5.054678 -1.835161
-0.766836 4.402908 -1.863180
-1.016240 4.436546 -1.858335
-1.651798 5.081187 -1.831781
-1.946197 5.095348 -1.809169
-1.339017 4.422979 -1.841840
-1.618481 4.481932 -1.838402
-0.536311 7.008276 -1.900282
-0.912600 7.115988 -1.873561
-0.302099 5.763672 -1.840869
-0.612158 5.788348 -1.831096
-1.397170 7.156707 -1.856896
-1.836147 7.322174 -1.851802
-1.011046 5.842096 -1.820693
-1.373001 6.001798 -1.835197
-2.386811 7.479613 -1.849840
-2.867211 7.603487 -1.834726
-1.798588 6.033045 -1.818228
-2.171243 6.115993 -1.811578
-0.661042 8.595220 -1.413682
-1.181896 9.028357 -1.416704
-0.479005 8.594909 -1.862250
-0.928641 8.530257 -1.788159
-1.746294 8.974963 -1.358417
-2.218024 8.985107 -1.279310
-1.551243 9.010660 -1.846927
-2.042912 8.964142 -1.774318
-0.635790 8.575114 -1.033154
-1.141803 8.969509 -1.041074
-0.421883 1.385008 0.273862
-0.446420 1.363408 0.285007
-1.704487 8.957178 -0.983473
-2.189783 8.986544 -0.907291
-1.525599 9.034194 -1.474259
-2.003249 8.978723 -1.403167
-2.785806 8.982131 -0.842389
-3.285592 8.943829 -0.779218
-2.586140 8.953423 -1.332123
-3.088614 8.961349 -1.276303
-0.644962 8.604358 -0.144081
-1.146326 9.001448 -0.074099
-0.465825 8.601242 -0.603666
-0.896584 8.454895 -0.505386
-1.688993 8.942477 0.004388
-2.181006 8.960251 0.085804
-1.514140 8.989307 -0.487147
-1.997816 8.981587 -0.406124
-2.761805 8.924376 0.160001
-3.274916 8.936769 0.251800
-2.575511 8.956580 -0.329136
-3.088315 8.979265 -0.273923
-0.119963 1.352584 0.291486
-0.153463 1.398869 0.309900
-0.462651 8.569836 0.330843
-0.888032 8.448359 0.398470
-0.275103 1.338835 0.316699
-0.319491 1.410112 0.336462
-1.498661 8.961018 0.491197
-1.982988 8.974150 0.582195
-0.347686 4.923470 -1.856381
-0.614398 4.987058 -1.866954
-2.616534 8.965520 -1.714059
-3.120486 8.956730 -1.654707
-0.968943 4.994304 -1.844718
-1.258019 5.055040 -1.833725
-0.751815 4.398117 -1.859856
-1.000646 4.432603 -1.855068
-1.635825 5.086352 -1.831781
-1.927483 5.094415 -1.806444
-1.322536 4.418370 -1.837838
-1.607540 4.495652 -1.842292
-0.513623 7.000353 -1.897471
-0.894169 7.149357 -1.882279
-0.283989 5.764592 -1.840869
-0.594775 5.797767 -1.833690
-1.376461 7.170535 -1.859558
-1.822546 7.365400 -1.862083
-0.991758 5.839630 -1.818788
-1.355416 6.011644 -1.837049
-2.355796 7.463027 -1.843408
-2.844679 7.616094 -1.835677
-1.778029 6.033169 -1.816429
-2.153942 6.128192 -1.813322
-0.633479 8.589403 -1.412256
-1.147397 8.985116 -1.408580
-0.452384 8.604152 -1.864073
-0.903101 8.544769 -1.790806
-1.722106 9.001738 -1.361990
-2.188364 8.986273 -1.278397
-1.520685 9.001997 -1.843938
-2.014738 8.970516 -1.774318
-0.609918 8.592866 -1.035460
-1.109373 8.939647 -1.036383
-0.417529 1.386327 0.273862
-0.442134 1.364803 0.285007
-1.682080 8.993690 -0.987653
-2.154966 8.966372 -0.903913
-1.497523 9.040884 -1.474623
-1.973316 8.977283 -1.401775
-2.755261 8.983232 -0.841495
-3.255420 8.948506 -0.778596
-2.557461 8.959605 -1.331794
-3.057871 8.963537 -1.275055
-0.618337 8.612324 -0.144327
-1.113755 8.971292 -0.073039
-0.438990 8.606641 -0.604044
-0.880515 8.556763 -0.513810
-1.665560 8.973310 0.003806
-2.149065 8.951513 0.086015
-1.485250 8.990084 -0.486840
-1.966991 8.976133 -0.405320
-2.732012 8.927266 0.160031
-3.245446 8.943258 0.251781
-2.539793 8.937717 -0.327515
-3.056195 8.977591 -0.273311
-0.115712 1.352954 0.291486
-0.149067 1.399344 0.309900
-0.435437 8.565254 0.330756
-0.864617 8.480936 0.399153
-0.270895 1.339693 0.316699
-0.315059 1.411108 0.336462
-1.470181 8.963709 0.491134
-1.952630 8.970578 0.581784
-0.332100 4.922693 -1.855621
-0.601260 5.009192 -1.875226
-2.588353 8.973696 -1.714059
-3.092976 8.968346 -1.655080
-0.954264 5.002808 -1.846928
-1.242130 5.058968 -1.833725
-0.740607 4.416619 -1.867336
-0.990375 4.451744 -1.862418
-1.623191 5.102192 -1.835987
-1.926170 5.139114 -1.821430
-1.311708 4.433067 -1.842640
-1.593408 4.500680 -1.842292
-0.491244 6.996186 -1.895784
-0.870744 7.144495 -1.880099
-0.266033 5.769232 -1.842183
-0.577338 5.807135 -1.836284
-1.358134 7.197572 -1.865947
-1.802185 7.382346 -1.865167
-0.974013 5.846462 -1.820058
-1.338203 6.023294 -1.839518
-2.337479 7.487057 -1.847861
-2.817337 7.615894 -1.833300
-1.761695 6.047896 -1.819428
-2.132133 6.127711 -1.810996
-0.607417 8.605095 -1.414751
-1.121155 9.004321 -1.411288
-0.424356 8.584132 -1.859059
-0.873997 8.526224 -1.785954
-1.694893 9.012926 -1.362964
-2.154047 8.968136 -1.274441
-1.491453 9.000945 -1.842657
-1.984402 8.967253 -1.772269
-0.581770 8.576964 -1.032866
-1.100273 9.096423 -1.057909
-0.413172 1.387632 0.273862
-0.437845 1.366186 0.285007
-1.653113 8.995028 -0.987130
-2.126325 8.971165 -0.903672
-1.468495 9.041659 -1.473894
-1.935394 8.939192 -1.393770
-2.723599 8.980422 -0.840153
-3.227293 8.958689 -0.778596
-2.526652 8.958095 -1.330150
-3.025875 8.961878 -1.273183
-0.590887 8.608240 -0.144081
-1.084339 8.964828 -0.072727
-0.412040 8.609967 -0.604233
-0.854241 8.565433 -0.514316
-1.638069 8.982433 0.003716
-2.113008 8.925160 0.086464
-1.456062 8.988797 -0.486381
-1.936651 8.972520 -0.404650
-2.701659 8.928141 0.160071
-3.218018 8.955290 0.251790
-2.517581 8.966814 -0.328788
-3.024120 8.975800 -0.272700
-0.111462 1.353311 0.291486
-0.144671 1.399805 0.309900
-0.408885 8.574571 0.330873
-0.839389 8.497536 0.399472
-0.266685 1.340537 0.316699
-0.310625 1.412091 0.336462
-1.441080 8.962358 0.490944
-1.922318 8.966904 0.581372
-0.317397 4.936638 -1.860944
-0.583725 4.996338 -1.869210
-2.541517 8.915714 -1.700362
-3.062228 8.970586 -1.653586
-0.938877 5.007610 -1.847664
-1.226681 5.064657 -1.834443
-0.723881 4.400957 -1.859025
-0.977187 4.458395 -1.864051
-1.600513 5.085793 -1.827574
-1.903389 5.127542 -1.814618
-1.296766 4.433640 -1.841039
-1.576167 4.496987 -1.838402
-0.469870 7.007272 -1.898595
-0.847361 7.139553 -1.877920
-0.248344 5.781364 -1.846122
-0.559662 5.814567 -1.838230
-1.339310 7.222667 -1.871804
-1.784951 7.412378 -1.871850
-0.954749 5.843873 -1.818154
-1.319275 6.027468 -1.839518
-2.313382 7.492509 -1.847366
-2.804858 7.655680 -1.841382
-1.743728 6.057072 -1.820628
-2.116024 6.143412 -1.813903
-0.578865 8.583394 -1.410474
-1.115950 9.193627 -1.443446
-0.397893 8.597097 -1.861794
-0.848202 8.538630 -1.788159
-1.665159 9.010439 -1.361665
-2.127247 8.980625 -1.275354
-1.462554 9.001727 -1.841803
-1.954111 8.963883 -1.770220
-0.555554 8.590603 -1.034595
-1.111079 9.426291 -1.103723
-0.408811 1.388923 0.273862
-0.433551 1.367554 0.285007
-1.625195 9.002129 -0.987392
-2.098590 8.979734 -0.903913
-1.439174 9.040400 -1.472801
-1.913129 8.972178 -1.398643
-2.690850 8.973693 -0.838363
-3.192400 8.950065 -0.776519
-2.486965 8.924147 -1.322914
-2.997076 8.969467 -1.272871
-0.563841 8.610054 -0.144081
-1.088267 9.234131 -0.081082
-0.384493 8.599282 -0.603099
-0.826342 8.558159 -0.513473
-1.609496 8.985566 0.003761
-2.089101 8.949268 0.086227
-1.425975 8.981503 -0.485463
-1.908455 8.978559 -0.404650
-2.672462 8.932749 0.160091
-3.183789 8.948412 0.251704
-2.477249 8.930391 -0.326126
-2.996545 8.987147 -0.272802
-0.107210 1.353654 0.291486
-0.140272 1.400253 0.309900
-0.381947 8.575812 0.330873
-0.814654 8.520027 0.399927
-0.262473 1.341369 0.316699
-0.306187 1.413060 0.336462
-1.414140 8.974744 0.491197
-1.893722 8.970945 0.581290
-0.302920 4.956079 -1.868548
-0.566495 4.985266 -1.863946
-2.515076 8.929321 -1.701536
-3.029595 8.967145 -1.650971
-0.923797 5.014195 -1.849138
-1.211650 5.072112 -1.835879
-0.712006 4.415792 -1.864843
-0.963968 4.465008 -1.865684
-1.585076 5.092587 -1.828275
-1.884643 5.126449 -1.811893
-1.284829 4.444747 -1.844241
-1.564486 4.508865 -1.841514
-0.448432 7.018294 -1.901406
-0.822651 7.123072 -1.872471
-0.229981 5.776453 -1.844152
-0.541026 5.812530 -1.836933
-1.315259 7.219247 -1.869674
-1.752144 7.378491 -1.861055
-0.935511 5.841221 -1.816250
-1.300334 6.031583 -1.839518
-2.287035 7.490463 -1.844892
-2.778121 7.657158 -1.839480
-1.721604 6.051496 -1.817029
-2.092967 6.139177 -1.810415
-0.552981 8.602848 -1.413682
-1.068825 9.046409 -1.417381
-0.371040 8.602195 -1.862706
-0.820411 8.531547 -1.785954
-1.635804 9.009797 -1.360691
-2.102210 9.000729 -1.277484
-1.433967 9.004346 -1.841376
-1.926774 8.973804 -1.771039
-0.527983 8.582427 -1.033154
-1.100175 9.589088 -1.126078
-0.404445 1.390200 0.273862
-0.429252 1.368910 0.285007
-1.595882 9.001330 -0.986608
-2.071269 8.990149 -0.904396
-1.410168 9.040989 -1.472072
-1.884930 8.978145 -1.398643
-2.662083 8.980196 -0.838139
-3.163597 8.958177 -0.776312
-2.467206 8.962373 -1.328177
-2.964503 8.965723 -1.270687
-0.537024 8.615773 -0.144245
-1.094009 9.533324 -0.090372
-0.357933 8.612386 -0.604233
-0.800023 8.566663 -0.513979
-1.579894 8.982697 0.003940
-2.062789 8.963579 0.086121
-1.398952 8.993826 -0.486075
-1.880651 8.986464 -0.404784
-2.642137 8.933424 0.160131
-3.154320 8.954601 0.251685
-2.445524 8.924642 -0.325316
-2.963245 8.981358 -0.271987
-0.102956 1.353984 0.291486
-0.135872 1.400687 0.309900
-0.355078 8.578969 0.330902
-0.787501 8.518564 0.399836
-0.258257 1.342187 0.316699
-0.301746 1.414015 0.336462
-1.384440 8.969260 0.490881
-1.862229 8.961208 0.580632
-0.287736 4.964396 -1.871590
-0.553172 5.007271 -1.872218
-2.481803 8.918270 -1.697623
-2.997638 8.965449 -1.648730
-0.906429 5.007916 -1.845455
-1.194834 5.072265 -1.834443
-0.697582 4.414410 -1.863180
-0.947595 4.457313 -1.860785
-1.571780 5.106506 -1.831781
-1.869830 5.135873 -1.813256
-1.270857 4.448762 -1.844241
-1.548488 4.508541 -1.839180
-0.426160 7.015835 -1.900282
-0.800046 7.123710 -1.871927
-0.211163 5.756377 -1.836930
-0.523472 5.821735 -1.839527
-1.290573 7.211950 -1.866480
-1.731188 7.393362 -1.863625
-0.918297 5.851631 -1.818788
-1.283795 6.046793 -1.843221
-2.260166 7.486471 -1.841924
-2.762002 7.687762 -1.845185
-1.702583 6.056875 -1.817029
-2.077382 6.156586 -1.813903
-0.525264 8.592755 -1.411543
-1.045472 9.092789 -1.424828
-0.343579 8.591642 -1.859971
-0.794722 8.545733 -1.788600
-1.607488 9.014892 -1.360691
-2.071227 8.995738 -1.275658
-1.404782 9.003014 -1.840095
-1.896518 8.970243 -1.768990
-0.501566 8.593924 -1.034595
-1.062849 9.529520 -1.117246
-0.400076 1.391464 0.273862
-0.424950 1.370251 0.285007
-1.567263 9.004344 -0.986347
-2.039901 8.983068 -0.902706
-1.382925 9.053153 -1.473530
-1.855101 8.976312 -1.397250
-2.631645 8.980877 -0.837245
-3.129486 8.951187 -0.774443
-2.438015 8.966268 -1.327519
-2.921457 8.929970 -1.263199
-0.509731 8.613426 -0.144081
-1.099475 9.846544 -0.100098
-0.330525 8.603519 -0.603288
-0.772183 8.559214 -0.513136
-1.551334 8.985644 0.003985
-2.033725 8.966117 0.086174
-1.369219 8.988315 -0.485310
-1.851187 8.986467 -0.404382
-2.611837 8.933995 0.160172
-3.118873 8.943713 0.251580
-2.425218 8.961211 -0.327052
-2.931267 8.979239 -0.271375
-0.098702 1.354301 0.291486
-0.131472 1.401107 0.309900
-0.327985 8.576045 0.330843
-0.761105 8.524978 0.399927
-0.254039 1.342991 0.316699
-0.297303 1.414956 0.336462
-1.356257 8.973564 0.490881
-1.834476 8.968970 0.580714
-0.271041 4.943105 -1.862465
-0.536404 4.999777 -1.868458
-2.466640 8.973337 -1.707406
-2.961991 8.952458 -1.644248
-0.892905 5.023566 -1.850611
-1.178031 5.072361 -1.833007
-0.682907 4.411181 -1.860687
-0.934741 4.465621 -1.863235
-1.551974 5.098857 -1.826873
-1.856918 5.150551 -1.816661
-1.255412 4.447433 -1.841840
-1.532510 4.508160 -1.836846
-0.403603 7.007556 -1.897471
-0.779389 7.141486 -1.876285
-0.193189 5.760788 -1.838243
-0.507416 5.847844 -1.847959
-1.265950 7.204569 -1.863285
-1.711925 7.415699 -1.868252
-0.900470 5.858239 -1.820058
-1.263602 6.045216 -1.841369
-2.231157 7.474946 -1.836976
-2.720758 7.648867 -1.832825
-1.683044 6.060353 -1.816429
-2.049444 6.137704 -1.805764
-0.498592 8.600258 -1.412612
-0.952677 8.535952 -1.328017
-0.316061 8.577110 -1.856324
-0.766068 8.528764 -1.784190
-1.578156 9.014063 -1.359716
-2.039857 8.988715 -1.273528
-1.376494 9.007381 -1.840095
-1.867522 8.972325 -1.768171
-0.487324 8.580867 -1.032577
-0.928544 8.472175 -0.968767
-0.397890 1.392091 0.273862
-0.422797 1.370917 0.285007
-1.553449 9.008751 -0.986608
-2.026673 8.990132 -0.903189
-1.366685 9.041698 -1.470979
-1.840197 8.975358 -1.396554
-2.614783 8.975451 -0.836126
-3.116081 8.957970 -0.774651
-2.420363 8.956746 -1.325217
-2.912975 8.951439 -1.266007
-0.496311 8.616213 -0.144163
-1.122300 10.187940 -0.110760
-0.317145 8.608006 -0.603666
-0.759466 8.568354 -0.513810
-1.537218 8.988070 0.003985
-2.017860 8.961502 0.086279
-1.354516 8.986509 -0.485003
-1.834639 8.977640 -0.403578
-2.596695 8.934242 0.160192
-3.100856 8.937275 0.251522
-2.408061 8.953432 -0.326358
-2.908450 8.957259 -0.269948
-0.096575 1.354455 0.291486
-0.129271 1.401311 0.309900
-0.314514 8.576550 0.330843
-0.748437 8.534128 0.400109
-0.251930 1.343389 0.316699
-0.295080 1.415421 0.336462
-1.342450 8.977661 0.490944
-1.819177 8.965970 0.580467
-0.264341 4.965696 -1.871590
-0.527119 4.987720 -1.863194
-2.447426 8.958267 -1.703493
-2.936157 8.921671 -1.637150
-0.884700 5.023129 -1.849874
-1.172634 5.085106 -1.837314
-0.677568 4.423048 -1.865674
-0.926963 4.463513 -1.861601
-1.549302 5.119242 -1.833884
-1.841105 5.132258 -1.808487
-1.247939 4.447630 -1.841039
-1.528426 4.519272 -1.840736
-0.393497 7.025433 -1.902531
-0.763917 7.104450 -1.865388
-0.184036 5.757308 -1.836930
-0.498399 5.850518 -1.848608
-1.251393 7.187546 -1.857961
-1.702904 7.429674 -1.871336
-0.890991 5.857770 -1.819423
-1.254893 6.050915 -1.842604
-2.225955 7.500756 -1.842913
-2.714626 7.669593 -1.837103
-1.676023 6.072196 -1.819428
-2.037359 6.133662 -1.803439
-0.484454 8.589240 -1.410474
-0.943034 8.570735 -1.333771
-0.301208 8.534774 -1.846296
-0.752316 8.526071 -1.783307
-1.563333 9.012640 -1.359067
-2.023536 8.982272 -1.272007
-1.363777 9.019196 -1.842230
-1.851420 8.965667 -1.766122
-0.461166 8.598167 -1.034884
-0.904512 8.498680 -0.972078
-0.393515 1.393334 0.273862
-0.418488 1.372239 0.285007
-1.523190 9.001850 -0.985040
-1.996678 8.988707 -0.902224
-1.338839 9.049839 -1.471708
-1.810413 8.973377 -1.395162
-2.587119 8.985534 -0.836350
-3.087925 8.967714 -0.774651
-2.391208 8.960488 -1.324559
-2.884841 8.960546 -1.266007
-0.469036 8.613738 -0.143999
-0.901773 8.470551 -0.056766
-0.290652 8.626870 -0.605367
-0.732370 8.568712 -0.513642
-1.507674 8.984963 0.004164
-1.987944 8.959992 0.086385
-1.326850 8.994666 -0.485310
-1.805630 8.979448 -0.403310
-2.565882 8.932736 0.160242
-3.068837 8.935635 0.251465
-2.380430 8.962884 -0.326473
-2.883993 8.977752 -0.270560
-0.092320 1.354751 0.291486
-0.124868 1.401711 0.309900
-0.287449 8.573498 0.330785
-0.721973 8.540421 0.400200
-0.247708 1.344173 0.316699
-0.290632 1.416341 0.336462
-1.314241 8.981834 0.490944
-1.790209 8.967722 0.580302
-0.247911 4.948023 -1.863986
-0.512838 5.002248 -1.868458
-2.420789 8.971595 -1.704667
-2.911183 8.940184 -1.639018
-0.870146 5.033218 -1.852821
-1.157922 5.094219 -1.839468
-0.664448 4.430556 -1.868167
-0.912937 4.466403 -1.861601
-1.533741 5.125881 -1.834585
-1.836455 5.169857 -1.820748
-1.236360 4.460374 -1.845041
-1.514816 4.525795 -1.841514
-0.371897 7.036219 -1.905342
-0.747796 7.164211 -1.881734
-0.167097 5.805073 -1.853344
-0.478877 5.838861 -1.844068
-1.228172 7.187638 -1.856896
-1.675233 7.416149 -1.866196
-0.872585 5.860540 -1.819423
-1.237043 6.060414 -1.844455
-2.213706 7.546798 -1.853304
-2.694410 7.689072 -1.839955
-1.658917 6.084801 -1.821827
-2.016871 6.136401 -1.802276
-0.457272 8.586788 -1.409761
-0.917612 8.587370 -1.336141
-0.275925 8.588236 -1.858604
-0.725357 8.526447 -1.782866
-1.535013 9.017506 -1.359067
-1.994876 8.986656 -1.271702
-1.333754 9.011833 -1.839668
-1.823641 8.973356 -1.766531
-0.433582 8.587714 -1.033154
-0.879896 8.521177 -0.974838
-0.389135 1.394563 0.273862
-0.414174 1.373547 0.285007
-1.493938 9.000721 -0.984256
-1.965413 8.981368 -0.900535
-1.309566 9.048160 -1.470614
-1.780651 8.971299 -1.393770
-2.558870 8.993618 -0.836350
-3.050027 8.949157 -0.771537
-2.360056 8.956504 -1.322585
-2.851832 8.954521 -1.263511
-0.442063 8.617165 -0.144081
-0.880860 8.527016 -0.058449
-0.263049 8.609830 -0.603666
-0.705610 8.572956 -0.513810
-1.479752 8.991632 0.004119
-1.957615 8.956430 0.086517
-1.296904 8.986944 -0.484391
-1.775833 8.977251 -0.402773
-2.543208 8.960011 0.160142
-3.038147 8.937666 0.251426
-2.345740 8.945193 -0.324969
-2.853328 8.979162 -0.270152
-0.088062 1.355035 0.291486
-0.120463 1.402096 0.309900
-0.260889 8.588352 0.330989
-0.694964 8.540655 0.400155
-0.243483 1.344945 0.316699
-0.286180 1.417248 0.336462
-1.284623 8.976022 0.490629
-1.760848 8.967423 0.580056
-0.232285 4.946929 -1.863225
-0.497695 5.009366 -1.870714
-2.392086 8.977262 -1.704275
-2.886722 8.960498 -1.641259
-0.852214 5.023085 -1.847664
-1.138155 5.081457 -1.833007
-0.650522 4.432622 -1.868167
-0.899638 4.472826 -1.863235
-1.520238 5.139668 -1.838091
-1.815142 5.161436 -1.815299
-1.220441 4.457155 -1.841840
-1.498820 4.525295 -1.839180
-0.349432 7.029683 -1.903093
-0.725481 7.168440 -1.882279
-0.149534 5.837678 -1.864505
-0.458327 5.813941 -1.834987
-1.211195 7.225705 -1.866480
-1.657464 7.445883 -1.872878
-0.855226 5.870765 -1.821962
-1.218758 6.067999 -1.845689
-2.178245 7.512732 -1.842418
-2.669592 7.695667 -1.839480
-1.645650 6.112116 -1.829026
-2.001772 6.155429 -1.806346
-0.431490 8.613738 -1.414395
-0.891042 8.594132 -1.336818
-0.249593 8.614367 -1.864529
-0.701038 8.557842 -1.789483
-1.506030 9.018391 -1.358417
-1.965343 8.987092 -1.270790
-1.302410 8.994700 -1.834971
-1.789985 8.952185 -1.760794
-0.407216 8.602873 -1.035172
-0.853123 8.523898 -0.974838
-0.384752 1.395779 0.273862
-0.409857 1.374841 0.285007
-1.465343 9.003411 -0.983995
-1.938037 8.991378 -0.901017
-1.281136 9.052228 -1.470614
-1.744037 8.934346 -1.386112
-2.525280 8.982466 -0.834113
-3.021899 8.958694 -0.771537
-2.330434 8.958143 -1.321599
-2.822490 8.959671 -1.262887
-0.415261 8.624501 -0.144327
-0.856531 8.553600 -0.059198
-0.236486 8.630518 -0.605557
-0.678022 8.567186 -0.513136
-1.450247 8.988336 0.004298
-1.929897 8.964491 0.086491
-1.269212 8.994925 -0.484697
-1.747237 8.980829 -0.402640
-2.507563 8.940974 0.160282
-3.008770 8.943378 0.251407
-2.320598 8.964124 -0.325663
-2.824502 8.986177 -0.270050
-0.083805 1.355305 0.291486
-0.116058 1.402467 0.309900
-0.233908 8.589129 0.330989
-0.668293 8.544788 0.400200
-0.239257 1.345703 0.316699
-0.281726 1.418140 0.336462
-1.255605 8.974072 0.490440
-1.730747 8.963107 0.579644
-0.216244 4.934696 -1.857902
-0.481582 5.007216 -1.869210
-2.362886 8.980936 -1.703493
-2.856754 8.963910 -1.640138
-0.835247 5.018394 -1.844718
-1.122186 5.085007 -1.833007
-0.637835 4.443655 -1.872323
-0.884853 4.472052 -1.861601
-1.503051 5.140818 -1.836689
-1.791398 5.145836 -1.807125
-1.208308 4.468055 -1.845041
-1.487514 4.538719 -1.843071
-0.327347 7.030746 -1.903093
-0.702569 7.166854 -1.881189
-0.131229 5.840008 -1.865161
-0.439154 5.804038 -1.831096
-1.188796 7.231378 -1.867012
-1.632383 7.443507 -1.870822
-0.834964 5.860271 -1.817519
-1.200067 6.073662 -1.846307
-2.160437 7.540050 -1.847861
-2.639673 7.687498 -1.835202
-1.626924 6.119102 -1.829626
-1.989547 6.183519 -1.813322
-0.403479 8.593426 -1.410474
-0.864243 8.598848 -1.337156
-0.222709 8.622897 -1.866353
-0.670970 8.521116 -1.780661
-1.476438 9.015283 -1.357118
-1.934993 8.983564 -1.269268
-1.269853 8.967782 -1.828139
-1.756105 8.928968 -1.754647
-0.379700 8.592246 -1.033442
-0.826736 8.530479 -0.975390
-0.380365 1.396981 0.273862
-0.405536 1.376122 0.285007
-1.436745 9.006012 -0.983734
-1.910199 8.999362 -0.901259
-1.251374 9.046466 -1.468792
-1.721990 8.970711 -1.391681
-2.484939 8.946275 -0.828968
-2.989296 8.954947 -0.770083
-2.301796 8.963507 -1.321270
-2.794923 8.970378 -1.263199
-0.388166 8.625762 -0.144327
-0.829856 8.558240 -0.059260
-0.209119 8.619275 -0.604422
-0.651263 8.571260 -0.513305
-1.421084 8.986920 0.004433
-1.901306 8.968554 0.086517
-1.240682 8.996892 -0.484544
-1.712547 8.952971 -0.400361
-2.471005 8.917946 0.160443
-2.978112 8.945203 0.251369
-2.286071 8.946204 -0.324159
-2.792072 8.981666 -0.269337
-0.079547 1.355561 0.291486
-0.111651 1.402825 0.309900
-0.206799 8.583824 0.330902
-0.641136 8.542860 0.400109
-0.235028 1.346448 0.316699
-0.277270 1.419018 0.336462
-1.226878 8.974010 0.490313
-1.699177 8.950840 0.578904
-0.201134 4.946443 -1.862465
-0.465488 5.005016 -1.867706
-2.327345 8.959819 -1.697623
-2.827985 8.970970 -1.639765
-0.820058 5.024667 -1.846191
-1.104178 5.079396 -1.829419
-0.622661 4.436622 -1.868167
-0.870082 4.471230 -1.859968
-1.489451 5.154525 -1.840194
-1.780815 5.167413 -1.813256
-1.192877 4.466509 -1.842640
-1.473249 4.543370 -1.843071
-0.305564 7.039412 -1.905342
-0.680240 7.170941 -1.881734
-0.112854 5.838502 -1.864505
-0.421064 5.807275 -1.831744
-1.165174 7.229364 -1.865415
-1.613967 7.471253 -1.876991
-0.817817 5.872263 -1.820693
-1.180981 6.077403 -1.846307
-2.144566 7.574793 -1.855283
-2.619297 7.706776 -1.838054
-1.606263 6.118641 -1.827826
-1.960709 6.160601 -1.804020
-0.376802 8.602514 -1.411900
-0.837620 8.605445 -1.337833
-0.195390 8.611873 -1.863618
-0.646798 8.556243 -1.788159
-1.447496 9.015979 -1.356469
-1.905516 8.983801 -1.268355
-1.245348 8.998834 -1.834117
-1.734837 8.969017 -1.762024
-0.353233 8.607239 -1.035460
-0.799935 8.533034 -0.975390
-0.375975 1.398169 0.273862
-0.401211 1.377389 0.285007
-1.406943 9.000679 -0.982428
-1.880684 8.999492 -0.900535
-1.222175 9.044502 -1.467699
-1.693801 8.976076 -1.391681
-2.466192 8.988563 -0.832995
-2.959892 8.960521 -0.769668
-2.273627 8.970694 -1.321270
-2.760274 8.958364 -1.259768
-0.360989 8.624942 -0.144245
-0.803352 8.564783 -0.059385
-0.182366 8.637807 -0.606124
-0.624032 8.569289 -0.512968
-1.391643 8.983432 0.004612
-1.871880 8.968614 0.086596
-1.211892 8.996791 -0.484238
-1.690029 8.987708 -0.402371
-2.441410 8.919872 0.160473
-2.946842 8.945024 0.251321
-2.260853 8.964966 -0.324853
-2.762659 8.986578 -0.269133
-0.075288 1.355804 0.291486
-0.107244 1.403169 0.309900
-0.179725 8.578433 0.330814
-0.613997 8.540844 0.400018
-0.230798 1.347180 0.316699
-0.272811 1.419882 0.336462
-1.198422 8.975837 0.490250
-1.669190 8.946317 0.578492
-0.185535 4.945201 -1.861704
-0.450114 5.010143 -1.869210
-2.305450 8.991801 -1.702710
-2.796839 8.970438 -1.637897
-0.804554 5.029056 -1.846928
-1.085417 5.070076 -1.824394
-0.608720 4.438555 -1.868167
-0.855679 4.472150 -1.859152
-1.472240 5.155571 -1.838792
-1.769498 5.187196 -1.818705
-1.180669 4.477333 -1.845841
-1.457252 4.542722 -1.840736
-0.282818 7.023074 -1.900282
-0.657527 7.171127 -1.881189
-0.094690 5.853940 -1.869757
-0.405745 5.848191 -1.845365
-1.141575 7.227272 -1.863817
-1.592123 7.483842 -1.879047
-0.802336 5.897368 -1.828309
-1.161154 6.077348 -1.845072
-2.125403 7.598304 -1.859736
-2.592572 7.707609 -1.836152
-1.585149 6.116261 -1.825427
-1.941929 6.168552 -1.804602
-0.349628 8.599723 -1.411187
-0.810010 8.602148 -1.336818
-0.168432 8.618285 -1.864985
-0.618742 8.542671 -1.784631
-1.418865 9.018532 -1.356144
-1.878923 8.997479 -1.269572
-1.216304 8.996891 -1.832836
-1.705539 8.968656 -1.760794
-0.325365 8.584571 -1.032001
-0.773864 8.543394 -0.976494
-0.371581 1.399343 0.273862
-0.396882 1.378643 0.285007
-1.379251 9.008978 -0.982950
-1.850782 8.997581 -0.899569
-1.193254 9.044396 -1.466970
-1.664137 8.973610 -1.390289
-2.437943 8.996266 -0.832995
-2.918018 8.928213 -0.765101
-2.244015 8.972046 -1.320283
-2.732118 8.966990 -1.259768
-0.334107 8.632025 -0.144491
-0.776443 8.567265 -0.059385
-0.155290 8.642317 -0.606502
-0.597543 8.577171 -0.513473
-1.364593 8.995670 0.004433
-1.840841 8.960745 0.086781
-1.182861 8.994620 -0.483779
-1.661050 8.989051 -0.402103
-2.415443 8.935226 0.160433
-2.915602 8.944738 0.251273
-2.227912 8.952634 -0.323696
-2.730311 8.981846 -0.268420
-0.071029 1.356034 0.291486
-0.102835 1.403499 0.309900
-0.152953 8.590952 0.330989
-0.587593 8.548713 0.400155
-0.226564 1.347898 0.316699
-0.268349 1.420732 0.336462
-1.169461 8.973608 0.490061
-1.644738 8.971161 0.579315
-0.170214 4.953156 -1.864746
-0.434542 5.013377 -1.869962
-2.275764 8.993291 -1.701536
-2.766309 8.971677 -1.636403
-0.787637 5.024205 -1.843981
-1.067119 5.062513 -1.820087
-0.595236 4.444055 -1.869830
-0.840235 4.467646 -1.855885
-1.458536 5.169196 -1.842297
-1.743434 5.164269 -1.807806
-1.165695 4.477468 -1.844241
-1.445808 4.556042 -1.844627
-0.260626 7.020092 -1.899157
-0.633760 7.159743 -1.877375
-0.076105 5.831540 -1.861879
-0.386171 5.832452 -1.839527
-1.120306 7.240354 -1.866480
-1.566592 7.479355 -1.876477
-0.783564 5.897977 -1.827674
-1.141339 6.077229 -1.843838
-2.105603 7.619899 -1.863695
-2.581975 7.756222 -1.846611
-1.565928 6.121210 -1.825427
-1.912745 6.143600 -1.794719
-0.323086 8.614546 -1.413682
-0.782061 8.594836 -1.335125
-0.141253 8.610982 -1.863162
-0.591059 8.532899 -1.781984
-1.389937 9.019041 -1.355494
-1.848228 8.991726 -1.267746
-1.184784 8.975476 -1.827285
-1.678087 8.977816 -1.761614
-0.299333 8.615225 -1.036325
-0.747196 8.547755 -0.976770
-0.367183 1.400504 0.273862
-0.392549 1.379883 0.285007
-1.350362 9.009342 -0.982428
-1.822903 9.005296 -0.899811
-1.164095 9.042250 -1.465877
-1.636294 8.980731 -1.390637
-2.405091 8.986589 -0.830982
-2.894891 8.952466 -0.766762
-2.213479 8.969470 -1.318639
-2.705657 8.981200 -1.260704
-0.307050 8.635028 -0.144573
-0.749161 8.565680 -0.059260
-0.127971 8.628826 -0.605178
-0.570453 8.577018 -0.513305
-1.335747 8.995955 0.004522
-1.811473 8.960608 0.086860
-1.153851 8.992356 -0.483319
-1.632076 8.990300 -0.401835
-2.386337 8.938904 0.160453
-2.875103 8.915820 0.251082
-2.204009 8.977054 -0.324737
-2.703238 8.994202 -0.268624
-0.066768 1.356251 0.291486
-0.098425 1.403815 0.309900
-0.125984 8.593390 0.331019
-0.560868 8.552512 0.400200
-0.222328 1.348604 0.316699
-0.263884 1.421568 0.336462
-1.140276 8.969302 0.489809
-1.616183 8.974319 0.579233
-0.154843 4.961062 -1.867788
-0.418461 5.011026 -1.868458
-2.245618 8.992781 -1.699971
-2.738686 8.982200 -1.636776
-0.771848 5.026655 -1.843981
-1.055093 5.084100 -1.827265
-0.580820 4.442293 -1.868167
-0.826536 4.472058 -1.856702
-1.442783 5.175560 -1.842999
-1.718135 5.143012 -1.797589
-1.152514 4.484663 -1.845841
-1.429803 4.555297 -1.842292
-0.238685 7.024713 -1.900282
-0.613309 7.184701 -1.883913
-0.057803 5.835528 -1.863191
-0.369246 5.854400 -1.846662
-1.095296 7.228581 -1.862220
-1.548243 7.508832 -1.883160
-0.765265 5.902293 -1.828309
-1.119414 6.065830 -1.838900
-2.079131 7.617120 -1.861221
-2.541024 7.714530 -1.833776
-1.543931 6.114989 -1.821827
-1.888869 6.134966 -1.790068
-0.295340 8.593882 -1.409761
-0.755232 8.599216 -1.335464
-0.114198 8.611383 -1.863162
-0.564516 8.538606 -1.782866
-1.361015 9.019458 -1.354845
-1.818379 8.989742 -1.266529
-1.154382 8.961707 -1.823442
-1.648076 8.973422 -1.759565
-0.271641 8.594360 -1.033154
-0.720509 8.552035 -0.977046
-0.362781 1.401650 0.273862
-0.388212 1.381109 0.285007
-1.321767 9.011579 -0.982166
-1.791454 8.995412 -0.897880
-1.128976 8.991208 -1.455673
-1.606659 8.978077 -1.389245
-2.375337 8.988333 -0.830311
-2.865527 8.957731 -0.766346
-2.186209 8.980217 -1.319296
-2.673442 8.976414 -1.258520
-0.279918 8.635951 -0.144573
-0.723463 8.581932 -0.059696
-0.100894 8.633169 -0.605557
-0.544031 8.586721 -0.513979
-1.306349 8.992190 0.004701
-1.785289 8.976056 0.086728
-1.123173 8.976143 -0.481788
-1.601330 8.981640 -0.400897
-2.363284 8.965712 0.160353
-2.854434 8.947654 0.251197
-2.168825 8.954806 -0.323001
-2.670947 8.989259 -0.267910
-0.062506 1.356454 0.291486
-0.094014 1.404117 0.309900
-0.098984 8.593743 0.331019
-0.533472 8.546252 0.400018
-0.218090 1.349295 0.316699
-0.259416 1.422390 0.336462
-1.112811 8.978796 0.489998
-1.587626 8.977386 0.579151
-0.139171 4.957826 -1.866267
-0.403979 5.027089 -1.874474
-2.215034 8.990262 -1.698014
-2.706445 8.977603 -1.634161
-0.754716 5.019855 -1.840298
-1.041027 5.096525 -1.830854
-0.566420 4.440484 -1.866505
-0.813827 4.481811 -1.859968
-1.427003 5.181876 -1.843700
-1.704961 5.157297 -1.800994
-1.138859 4.490041 -1.846642
-1.416595 4.563281 -1.843849
-0.216769 7.031184 -1.901969
-0.593366 7.217269 -1.892631
-0.039473 5.837571 -1.863848
-0.350364 5.847980 -1.844068
-1.071475 7.224355 -1.860090
-1.526206 7.521230 -1.885216
-0.749704 5.929142 -1.836560
-1.097573 6.054354 -1.833963
-2.028284 7.522491 -1.834502
-2.530147 7.763070 -1.844234
-1.523804 6.116104 -1.820628
-1.874667 6.157327 -1.795300
-0.269115 8.622309 -1.414751
-0.728210 8.601547 -1.335464
-0.087142 8.611700 -1.863162
-0.537429 8.536446 -1.781984
-1.331823 9.017833 -1.353870
-1.788560 8.987661 -1.265312
-1.120509 8.918745 -1.813194
-1.619522 8.976631 -1.759155
-0.244994 8.609020 -1.035172
-0.693308 8.550308 -0.976494
-0.358376 1.402783 0.273862
-0.383871 1.382322 0.285007
-1.292348 9.007831 -0.981121
-1.761638 8.993206 -0.896915
-1.103991 9.022047 -1.460775
-1.577755 8.979203 -1.388549
-2.345600 8.989978 -0.829640
-2.836162 8.962900 -0.765931
-2.147974 8.944809 -1.312061
-2.644104 8.980982 -1.257896
-0.252892 8.640783 -0.144737
-0.695494 8.572211 -0.059322
-0.073795 8.637424 -0.605935
-0.516676 8.582423 -0.513473
-1.277543 8.992290 0.004791
-1.756694 8.979658 0.086755
-1.090492 8.942004 -0.478879
-1.572758 8.984661 -0.400763
-2.327135 8.942101 0.160513
-2.823882 8.948953 0.251158
-2.141142 8.963518 -0.323117
-2.641558 8.993776 -0.267707
-0.058245 1.356643 0.291486
-0.089603 1.404406 0.309900
-0.071955 8.588014 0.330931
-0.506871 8.551877 0.400109
-0.213850 1.349974 0.316699
-0.254947 1.423198 0.336462
-1.078751 8.932615 0.488420
-1.558721 8.978395 0.578986
-0.123596 4.958239 -1.866267
-0.388337 5.030180 -1.875226
-2.173045 8.939964 -1.686274
-2.675964 8.978536 -1.632667
-0.738682 5.020359 -1.839561
-1.026520 5.107084 -1.833725
-0.552896 4.445855 -1.868167
-0.799413 4.482550 -1.859152
-1.409752 5.182713 -1.842297
-1.684599 5.150136 -1.796226
-1.129969 4.514964 -1.856246
-1.398401 4.555400 -1.838402
-0.195370 7.060612 -1.910402
-0.569422 7.203755 -1.888272
-0.021144 5.826331 -1.859909
-0.333726 5.877377 -1.853796
-1.048235 7.223868 -1.859025
-1.501417 7.520306 -1.883674
-0.730627 5.927701 -1.835291
-1.076841 6.048415 -1.830877
-2.018921 7.583179 -1.848851
-2.513574 7.794991 -1.850414
-1.511748 6.150534 -1.830225
-1.860906 6.181487 -1.801114
-0.241337 8.595568 -1.409761
-0.701518 8.607718 -1.336141
-0.060135 8.623615 -1.865897
-0.511711 8.555614 -1.785954
-1.303488 9.021972 -1.353870
-1.752998 8.956398 -1.259530
-1.084602 8.856258 -1.798676
-1.591314 8.981675 -1.759155
-0.217684 8.597876 -1.033442
-0.666125 8.548495 -0.975942
-0.353967 1.403902 0.273862
-0.379527 1.383521 0.285007
-1.264314 9.013811 -0.981383
-1.725376 8.957777 -0.891848
-1.090635 9.154391 -1.484827
-1.547498 8.972474 -1.386460
-2.309992 8.968411 -0.826284
-2.804994 8.962281 -0.764893
-2.125703 8.976484 -1.316336
-2.610305 8.970290 -1.254776
-0.225747 8.641536 -0.144737
-0.667755 8.564390 -0.059011
-0.046657 8.635623 -0.605746
-0.489355 8.578034 -0.512968
-1.249289 8.996258 0.004791
-1.725793 8.971393 0.086939
-1.094750 9.224690 -0.500466
-1.544182 8.987592 -0.400629
-2.293127 8.926105 0.160634
-2.795756 8.957780 0.251158
-2.100762 8.917691 -0.319992
-2.610481 8.992445 -0.267197
-0.053983 1.356820 0.291486
-0.085191 1.404680 0.309900
-0.044985 8.592196 0.330989
-0.479886 8.551431 0.400064
-0.209608 1.350639 0.316699
