ply
format ascii 1.0
element vertex 1649
property float x
property float y
property float z
end_header
4.826543 -4.118952 -1.896299
6.621527 -4.754312 -1.926533
7.124179 -4.573927 -1.917918
5.312640 -3.971696 -1.924405
5.678432 -3.803252 -1.916217
5.969035 -6.862036 -1.499589
6.629555 -6.842278 -1.489143
5.674039 -6.806594 -1.921508
6.220712 -6.705138 -1.916070
7.534414 -6.874127 -1.532174
8.327191 -6.859668 -1.515449
7.033077 -6.700202 -1.971611
7.670934 -6.555600 -1.962005
5.919468 -6.842846 -1.098594
6.559893 -6.818657 -1.099583
53.793358 -41.181545 3.505090
1.171725 -0.827787 0.285007
7.473522 -6.875273 -1.120115
8.301529 -6.880452 -1.093580
7.185094 -6.889746 -1.621125
7.940754 -6.847709 -1.630459
9.367964 -6.848476 -1.090005
10.555920 -6.897227 -1.100810
8.987345 -6.843287 -1.661675
10.081916 -6.882030 -1.707157
5.948706 -6.865419 -0.162762
39.120922 -40.475266 -1.546771
5.709862 -6.871757 -0.634108
6.283257 -6.809667 -0.569915
39.306282 -36.411095 -0.991918
1.054430 -0.903786 0.189211
7.132490 -6.844999 -0.546242
7.950454 -6.864954 -0.493647
1.038502 -0.731526 0.200556
1.175514 -0.796988 0.213030
8.979240 -6.854008 -0.443720
10.025532 -6.853252 -0.409046
0.903283 -1.013880 0.291486
0.957783 -1.031036 0.309900
0.940111 -1.097723 0.226642
55.595142 -60.063255 2.069084
1.019581 -0.910284 0.316699
53.361279 -44.136581 6.704093
1.012452 -0.942897 0.248070
53.413391 -46.054485 3.107622
3.263309 -3.798632 -1.886038
3.509719 -3.678258 -1.891018
8.498023 -6.431705 -1.977041
9.235937 -6.262214 -1.972980
3.829852 -3.496650 -1.883760
4.050256 -3.326124 -1.845928
3.211748 -3.065780 -1.849882
3.458850 -2.969607 -1.861601
4.438633 -3.171590 -1.873847
4.705487 -3.013783 -1.857532
3.674128 -2.739020 -1.825033
3.933906 -2.623310 -1.822839
4.606402 -5.331768 -1.905342
5.080728 -5.305005 -1.922053
3.725815 -4.528419 -1.873040
4.041812 -4.411802 -1.886875
5.565624 -5.101810 -1.928242
6.121962 -5.039927 -1.953071
4.412454 -4.222364 -1.880354
4.812130 -4.132861 -1.895681
6.612825 -4.779652 -1.928513
7.124486 -4.605732 -1.922197
5.301657 -3.989520 -1.925005
5.668046 -3.822136 -1.916798
5.939751 -6.871799 -1.497450
6.584719 -6.838996 -1.483389
5.632823 -6.800333 -1.914214
6.183701 -6.707483 -1.910777
7.488127 -6.875011 -1.526652
8.261379 -6.849314 -1.506624
7.003551 -6.714128 -1.969049
7.626502 -6.559305 -1.955449
5.878654 -6.838841 -1.094270
6.500002 -6.799247 -1.091856
55.813507 -43.008163 3.637400
1.169119 -0.831464 0.285007
7.417047 -6.866299 -1.113844
8.241680 -6.874796 -1.087547
7.143652 -6.893116 -1.616023
7.893862 -6.850739 -1.624542
9.322431 -6.860149 -1.086649
10.479284 -6.894391 -1.093959
8.940793 -6.852229 -1.656413
10.022743 -6.888014 -1.699982
5.895920 -6.847640 -0.160795
38.929852 -40.531681 -1.543903
5.683192 -6.883505 -0.633352
6.259132 -6.826443 -0.569578
39.275028 -36.612156 -0.994471
1.051586 -0.907094 0.189211
7.083766 -6.840981 -0.543334
7.876015 -6.844215 -0.488955
1.036199 -0.734785 0.200556
1.173005 -0.800677 0.213030
8.918152 -6.851681 -0.440826
9.957812 -6.853107 -0.406193
0.900093 -1.016713 0.291486
51.943909 -54.262463 5.981622
0.936658 -1.100671 0.226642
55.069008 -59.871292 2.057744
1.016716 -0.913482 0.316699
53.226948 -44.307823 6.704654
58.271759 -56.669270 2.770208
53.224655 -46.184090 3.105236
3.248972 -3.806039 -1.884518
3.498147 -3.689266 -1.891018
8.471547 -6.453603 -1.975476
9.224343 -6.296717 -1.974847
3.805219 -3.496016 -1.876394
4.049900 -3.347106 -1.850953
3.207318 -3.080926 -1.853207
3.445340 -2.976902 -1.859152
4.424101 -3.182216 -1.871744
4.692825 -3.026526 -1.856169
3.672804 -2.756091 -1.829034
3.924111 -2.634637 -1.822061
4.575936 -5.330142 -1.899157
5.065368 -5.322330 -1.922598
3.730597 -4.563589 -1.883544
4.030492 -4.427266 -1.888172
5.555219 -5.124516 -1.930372
6.106098 -5.059136 -1.953071
4.393724 -4.230920 -1.877815
4.799123 -4.147957 -1.895681
6.607157 -4.807273 -1.931481
7.098562 -4.620708 -1.918869
5.276967 -3.996892 -1.920206
5.649661 -3.835649 -1.914473
5.881072 -6.847024 -1.487113
6.556368 -6.852547 -1.481696
5.607732 -6.813473 -1.912847
6.152023 -6.715398 -1.907249
7.446247 -6.879702 -1.522106
8.218530 -6.857556 -1.502364
6.969800 -6.723854 -1.965206
7.623658 -6.598558 -1.960366
5.845612 -6.843699 -1.091675
6.467664 -6.808175 -1.089648
55.329376 -42.912605 3.615885
56.240192 -38.773453 4.118515
7.378072 -6.873302 -1.110709
8.188046 -6.873924 -1.082479
7.095224 -6.889425 -1.609099
7.844055 -6.850960 -1.617928
9.267351 -6.864484 -1.081952
10.411077 -6.896616 -1.088146
8.888039 -6.856112 -1.649835
9.945737 -6.881369 -1.689374
5.870495 -6.861562 -0.160550
0.938512 -1.020021 0.165694
5.640148 -6.875093 -0.630137
6.224192 -6.831379 -0.567893
37.680336 -35.346123 -0.949011
1.048731 -0.910393 0.189211
0.911611 -0.854262 0.116823
7.830389 -6.847967 -0.486811
1.033885 -0.738037 0.200556
1.170484 -0.804358 0.213030
8.865049 -6.855162 -0.438511
9.886908 -6.850336 -0.403136
0.896895 -1.019536 0.291486
55.781029 -58.635612 6.428897
0.933195 -1.103609 0.226642
52.737747 -57.700981 1.985425
1.013841 -0.916672 0.316699
55.374729 -46.389519 6.984784
58.417667 -57.169544 2.784532
53.369896 -46.604633 3.121115
3.238189 -3.817643 -1.885278
3.496762 -3.710976 -1.897034
8.446570 -6.476592 -1.974302
9.211004 -6.330102 -1.976342
3.788782 -3.502876 -1.873447
4.029278 -3.351506 -1.845928
3.182018 -3.075723 -1.843233
3.438739 -2.990091 -1.860785
4.409546 -3.192782 -1.869641
4.667476 -3.031087 -1.849358
3.662672 -2.766503 -1.828234
3.944923 -2.666396 -1.836846
4.559169 -5.344491 -1.899157
5.023407 -5.311741 -1.912246
3.742304 -4.607662 -1.897988
4.035692 -4.460867 -1.897901
5.539093 -5.141943 -1.930372
6.070824 -5.062265 -1.946388
4.396688 -4.260610 -1.885432
4.793271 -4.169227 -1.898767
6.609180 -4.840656 -1.936924
7.101920 -4.654645 -1.924098
5.268922 -4.016939 -1.922006
5.639167 -3.854452 -1.915054
5.864626 -6.871468 -1.488539
6.517100 -6.854588 -1.477296
5.561734 -6.800835 -1.903731
6.134849 -6.739009 -1.908572
7.394319 -6.874764 -1.515285
8.169643 -6.860526 -1.496887
6.938855 -6.736164 -1.962217
7.605850 -6.625040 -1.961186
5.811319 -6.846903 -1.088792
6.420331 -6.801164 -1.084404
54.221432 -42.326195 3.555717
1.163871 -0.838794 0.285007
7.333351 -6.874690 -1.106529
8.154251 -6.889393 -1.080549
7.053904 -6.892389 -1.603997
7.780982 -6.839266 -1.608182
9.209154 -6.866159 -1.076807
10.329699 -6.889678 -1.080672
8.829123 -6.854879 -1.641942
9.885106 -6.885565 -1.681886
5.832140 -6.860131 -0.159485
0.935302 -1.022964 0.165694
5.609746 -6.881949 -0.628814
6.173182 -6.818480 -0.564187
37.579273 -35.473938 -0.949325
1.045866 -0.913683 0.189211
7.003669 -6.849005 -0.539353
7.789320 -6.855443 -0.485069
1.031561 -0.741281 0.200556
56.748466 -37.774704 0.532614
8.802577 -6.850999 -0.435502
9.832521 -6.858580 -0.401098
0.893687 -1.022349 0.291486
55.580093 -58.793179 6.427055
0.929724 -1.106535 0.226642
52.505100 -57.810150 1.983695
55.794388 -52.705158 6.687485
1.088812 -0.951303 0.336462
58.247730 -57.362606 2.784973
64.250526 -56.455608 3.725362
3.220255 -3.820695 -1.881476
3.476171 -3.712519 -1.891770
8.429281 -6.505500 -1.975085
9.187837 -6.356780 -1.975595
3.768274 -3.505848 -1.868291
4.053224 -3.392735 -1.863156
3.172339 -3.085705 -1.843233
3.426568 -2.998491 -1.859152
4.388935 -3.198846 -1.864733
4.676873 -3.057996 -1.857532
3.671395 -2.791406 -1.837838
3.889133 -2.646903 -1.812724
4.548533 -5.366131 -1.901969
5.034472 -5.356846 -1.923687
3.713650 -4.601692 -1.890110
4.016574 -4.467918 -1.895306
5.527123 -5.163282 -1.931969
6.054890 -5.081312 -1.946388
4.388690 -4.279722 -1.887970
4.783022 -4.186759 -1.900002
6.609499 -4.872944 -1.941872
7.084012 -4.674805 -1.923148
5.254766 -4.032304 -1.921406
5.625449 -3.871070 -1.914473
5.820176 -6.862776 -1.482123
6.479242 -6.857879 -1.473234
5.544010 -6.822819 -1.905098
6.120211 -6.765464 -1.910777
7.346807 -6.873625 -1.509439
8.129894 -6.870891 -1.493235
6.906506 -6.746976 -1.958801
7.574671 -6.639896 -1.958317
5.777065 -6.849961 -1.085909
6.386700 -6.808332 -1.081920
54.048935 -42.465462 3.553283
1.161230 -0.842446 0.285007
7.293014 -6.879958 -1.103132
8.102255 -6.889328 -1.075723
7.005643 -6.888249 -1.597072
7.738760 -6.845461 -1.603309
9.141519 -6.860356 -1.070321
10.284852 -6.906620 -1.077765
8.767204 -6.850907 -1.633390
9.818069 -6.884926 -1.673151
5.791283 -6.855464 -0.158256
42.027687 -44.587234 -1.702144
5.579359 -6.888683 -0.627490
6.145045 -6.830451 -0.563344
39.215130 -37.253494 -1.003339
1.042990 -0.916965 0.189211
6.946678 -6.835912 -0.535525
7.746785 -6.861409 -0.483192
1.029227 -0.744518 0.200556
56.597942 -37.931652 0.532432
8.759046 -6.861331 -0.433881
9.755266 -6.850529 -0.397633
0.890471 -1.025151 0.291486
58.174522 -61.924240 6.739304
0.926243 -1.109450 0.226642
52.316532 -57.967392 1.983467
1.008062 -0.923024 0.316699
1.085818 -0.954719 0.336462
60.632145 -60.088787 2.898996
63.827286 -56.440155 3.711868
3.189352 -3.808004 -1.869309
3.461952 -3.720721 -1.890266
8.391796 -6.518672 -1.970780
9.146827 -6.371063 -1.970738
3.738329 -3.499783 -1.857978
4.049714 -3.411431 -1.866745
3.178139 -3.111017 -1.853207
3.399230 -2.993657 -1.848536
4.357795 -3.197005 -1.854917
4.668819 -3.073700 -1.858213
3.674202 -2.811903 -1.844241
3.879273 -2.658074 -1.811945
4.526729 -5.374505 -1.899720
5.024211 -5.379644 -1.926412
3.686246 -4.597066 -1.882888
3.991120 -4.467865 -1.889469
5.510876 -5.180621 -1.931969
6.041859 -5.102794 -1.947417
4.380616 -4.298824 -1.890509
4.777009 -4.208023 -1.903088
6.608130 -4.904121 -1.946325
7.074154 -4.700246 -1.924574
5.254117 -4.058170 -1.926205
5.616415 -3.890892 -1.915636
5.782158 -6.861416 -1.477489
6.418425 -6.836634 -1.463417
5.503047 -6.815901 -1.897805
6.092385 -6.777422 -1.908572
7.296510 -6.869541 -1.502944
8.064511 -6.859365 -1.484410
6.886665 -6.770014 -1.959228
7.530233 -6.643000 -1.951760
5.746650 -6.857432 -1.083892
6.357151 -6.819691 -1.080264
55.252995 -43.693722 3.636427
1.158578 -0.846090 0.285007
7.228328 -6.861768 -1.095294
8.033710 -6.874846 -1.068242
6.957478 -6.883874 -1.590148
7.687729 -6.843623 -1.596348
9.097757 -6.872221 -1.067189
10.197094 -6.894468 -1.069461
8.728612 -6.864961 -1.629773
9.738203 -6.874847 -1.661919
5.758194 -6.859816 -0.157518
40.495594 -43.234417 -1.638673
5.537791 -6.881301 -0.624465
6.091578 -6.814156 -0.559301
39.199024 -37.473274 -1.006474
1.040104 -0.920237 0.189211
6.898317 -6.830970 -0.532617
7.695331 -6.859232 -0.480511
1.026883 -0.747748 0.200556
56.465229 -38.100327 0.532355
8.696754 -6.856577 -0.430872
9.701025 -6.858152 -0.395595
0.887246 -1.027944 0.291486
0.941470 -1.045953 0.309900
0.922753 -1.112355 0.226642
0.933552 -1.079175 0.237483
1.005157 -0.926186 0.316699
1.082814 -0.958125 0.336462
0.997517 -0.958684 0.248070
61.508373 -54.736084 3.593882
3.204417 -3.850849 -1.886799
3.451511 -3.732933 -1.891018
8.352769 -6.530462 -1.966084
9.096150 -6.378406 -1.963641
3.721928 -3.506382 -1.855031
4.037547 -3.422936 -1.866027
3.165773 -3.118418 -1.851544
3.387061 -3.001915 -1.846902
4.364246 -3.222999 -1.862629
4.668573 -3.094542 -1.862300
3.671133 -2.827939 -1.847442
3.924186 -2.706571 -1.839180
4.502464 -5.379840 -1.896346
5.009914 -5.398214 -1.927501
3.682322 -4.621968 -1.888796
3.970754 -4.473335 -1.886226
5.486197 -5.189930 -1.928775
6.021367 -5.118009 -1.945874
4.350963 -4.296504 -1.882893
4.760908 -4.220498 -1.901853
6.589593 -4.922528 -1.945335
7.038320 -4.708469 -1.918393
5.218816 -4.057003 -1.917207
5.607310 -3.910694 -1.916798
5.754279 -6.871985 -1.475706
6.398263 -6.858202 -1.463756
5.479180 -6.830111 -1.896893
6.068456 -6.793626 -1.907690
7.259173 -6.877458 -1.499371
8.014330 -6.860312 -1.478629
6.875061 -6.801261 -1.962217
7.506392 -6.664033 -1.950941
5.704886 -6.851059 -1.079279
6.324893 -6.828033 -1.078056
55.074829 -43.834740 3.633896
55.070454 -38.997341 4.070901
7.188143 -6.866588 -1.091898
7.990967 -6.881965 -1.064864
6.913579 -6.883439 -1.584317
7.658839 -6.861188 -1.594607
9.038218 -6.871812 -1.061821
10.116100 -6.886298 -1.061987
8.673036 -6.865332 -1.622537
9.689138 -6.886011 -1.656615
5.736615 -6.877871 -0.157518
40.441326 -43.449184 -1.642414
5.502518 -6.881518 -0.622385
6.079435 -6.843662 -0.560480
39.132961 -37.646160 -1.008087
1.037208 -0.923500 0.189211
6.865552 -6.841318 -0.531392
7.642479 -6.855471 -0.477697
1.024529 -0.750970 0.200556
1.160284 -0.819003 0.213030
8.637705 -6.853991 -0.428094
9.627275 -6.851649 -0.392334
0.884012 -1.030726 0.291486
56.065426 -60.436829 6.544897
0.919254 -1.115248 0.226642
63.443977 -71.182373 2.376757
1.002242 -0.929339 0.316699
1.079798 -0.961523 0.336462
61.520081 -61.740536 2.955661
61.736660 -55.287533 3.616015
3.182932 -3.849443 -1.880715
3.447332 -3.751907 -1.895530
8.332211 -6.556671 -1.966084
9.058382 -6.394527 -1.959531
3.727008 -3.533490 -1.863871
4.038182 -3.445241 -1.871769
3.161099 -3.133501 -1.854869
3.384460 -3.018578 -1.850985
4.360090 -3.241192 -1.865434
4.641570 -3.097792 -1.854807
3.662230 -2.839458 -1.847442
3.918702 -2.720971 -1.840736
4.502645 -5.414683 -1.904218
4.982453 -5.402646 -1.923142
3.651459 -4.612704 -1.879605
3.967999 -4.498507 -1.892063
5.465690 -5.203137 -1.927177
6.015569 -5.145661 -1.949473
4.342802 -4.315523 -1.885432
4.743351 -4.231652 -1.900002
6.605000 -4.966597 -1.955232
7.028337 -4.733799 -1.919820
5.222523 -4.086376 -1.923805
5.588716 -3.923916 -1.914473
5.712592 -6.865765 -1.470003
6.357868 -6.858083 -1.459017
5.445602 -6.832026 -1.892335
6.048382 -6.814114 -1.908131
7.213311 -6.877018 -1.493850
7.967225 -6.863587 -1.473456
6.856422 -6.825591 -1.963071
7.475176 -6.678479 -1.948072
5.665733 -6.847548 -1.075243
6.271117 -6.812984 -1.071433
55.133232 -44.164974 3.646163
1.153239 -0.853353 0.285007
7.142295 -6.865713 -1.087456
7.940740 -6.882400 -1.060279
6.875294 -6.888377 -1.579944
7.599128 -6.851025 -1.585557
8.967744 -6.862617 -1.054887
10.054979 -6.891140 -1.057004
8.617542 -6.865422 -1.615301
9.609528 -6.875163 -1.645384
5.681942 -6.855760 -0.155388
40.420052 -43.700710 -1.647713
5.483339 -6.901896 -0.622763
6.023505 -6.823980 -0.556099
39.067623 -37.820400 -1.009744
1.034302 -0.926754 0.189211
6.817345 -6.835953 -0.528483
7.601604 -6.862113 -0.475954
1.022165 -0.754185 0.200556
1.157705 -0.822644 0.213030
8.598999 -6.867347 -0.426821
9.561794 -6.850548 -0.389583
0.880770 -1.033498 0.291486
0.934879 -1.051848 0.309900
0.915746 -1.118130 0.226642
63.330105 -71.505547 2.380537
0.999318 -0.932484 0.316699
1.076772 -0.964910 0.336462
63.097500 -63.723816 3.035168
55.232750 -49.780193 3.265266
3.178991 -3.869471 -1.886038
3.433014 -3.759994 -1.894026
8.287020 -6.563272 -1.959823
9.027019 -6.415013 -1.956917
3.734632 -3.563246 -1.874184
4.025916 -3.456701 -1.871051
3.161482 -3.153754 -1.861518
3.365402 -3.020714 -1.845269
4.331954 -3.241322 -1.857021
4.627118 -3.109234 -1.852764
3.663362 -2.858900 -1.853044
3.916197 -2.737458 -1.843849
4.479527 -5.421381 -1.901406
4.961540 -5.414031 -1.921508
3.649725 -4.640544 -1.886827
3.940062 -4.495361 -1.884929
5.442380 -5.213592 -1.924515
5.986154 -5.153229 -1.944846
4.321210 -4.321064 -1.881623
4.730033 -4.246532 -1.900002
6.587822 -4.986148 -1.954736
7.037599 -4.772136 -1.926951
5.211153 -4.103950 -1.924405
5.570094 -3.937060 -1.912148
5.682247 -6.873036 -1.467508
6.318877 -6.859226 -1.454616
5.408454 -6.829208 -1.886409
6.006232 -6.809732 -1.901074
7.161839 -6.870876 -1.487029
7.920178 -6.866633 -1.468282
6.814295 -6.826299 -1.956666
7.451240 -6.699321 -1.947253
5.637931 -6.857652 -1.073802
6.240294 -6.822445 -1.069501
55.218090 -44.518600 3.660182
1.150553 -0.856971 0.285007
7.093681 -6.861852 -1.082492
7.884593 -6.877382 -1.054729
6.830141 -6.886145 -1.573749
7.554175 -6.853750 -1.579988
8.927279 -6.876160 -1.052202
9.974252 -6.882151 -1.049530
8.562135 -6.865230 -1.608066
9.536503 -6.868486 -1.635400
5.651515 -6.862752 -0.154814
41.097313 -44.713146 -1.685247
5.434591 -6.884627 -0.618603
6.002037 -6.842869 -0.556099
39.043091 -38.035072 -1.012700
1.031385 -0.929999 0.189211
6.770637 -6.831774 -0.525727
7.551881 -6.860538 -0.473408
1.019791 -0.757393 0.200556
1.155115 -0.826277 0.213030
8.533891 -6.859200 -0.423580
9.501282 -6.852598 -0.387137
0.877519 -1.036260 0.291486
0.931570 -1.054780 0.309900
0.912228 -1.121002 0.226642
55.779385 -63.384712 2.128059
58.799999 -57.321175 7.140869
61.553757 -53.567940 7.863884
61.280914 -62.278370 2.962413
54.993168 -49.878315 3.260658
3.167981 -3.880879 -1.886799
3.424942 -3.774859 -1.896282
8.264830 -6.588047 -1.959431
8.984410 -6.427389 -1.951687
3.760792 -3.611208 -1.894810
4.024966 -3.477827 -1.876076
3.159216 -3.171448 -1.866505
3.362704 -3.037352 -1.849352
4.323241 -3.256050 -1.857722
4.625139 -3.128987 -1.856169
3.670148 -2.882937 -1.861848
3.912115 -2.752903 -1.846183
4.455198 -5.426500 -1.898033
4.924996 -5.408318 -1.913335
3.631658 -4.647506 -1.884857
3.929666 -4.511981 -1.886875
5.425974 -5.230663 -1.924515
5.984585 -5.184618 -1.949987
4.307614 -4.334619 -1.881623
4.713835 -4.258832 -1.898767
6.579814 -5.012716 -1.957211
7.016140 -4.789859 -1.925049
5.193763 -4.116727 -1.922606
5.565514 -3.960058 -1.915054
5.645690 -6.872561 -1.463230
6.267927 -6.847138 -1.447169
5.384574 -6.843097 -1.885497
5.983519 -6.827104 -1.900633
7.111894 -6.865853 -1.480534
7.874684 -6.870748 -1.463413
6.788699 -6.843501 -1.955385
7.408331 -6.703052 -1.941105
5.622153 -6.860362 -1.072649
6.216183 -6.817640 -1.066741
55.540924 -44.923248 3.684814
54.798145 -39.454319 4.073420
7.061603 -6.852217 -1.078573
7.846827 -6.866292 -1.050386
6.802770 -6.880040 -1.569376
7.520041 -6.844456 -1.574419
8.889780 -6.869454 -1.048400
9.917567 -6.866205 -1.043717
8.523725 -6.856348 -1.602145
9.488815 -6.856927 -1.628224
5.629357 -6.857687 -0.154077
40.343376 -44.032139 -1.653699
5.411505 -6.877472 -0.616713
5.958378 -6.814876 -0.551887
39.074783 -38.185844 -1.015566
1.029923 -0.931617 0.189211
6.734740 -6.816798 -0.522972
7.517440 -6.850945 -0.471263
1.018600 -0.758994 0.200556
1.153816 -0.828090 0.213030
8.487426 -6.843687 -0.420918
9.446746 -6.835996 -0.384385
0.875890 -1.037637 0.291486
52.553085 -57.552753 6.198585
0.910466 -1.122433 0.226642
62.747101 -71.523689 2.372066
0.994913 -0.937182 0.316699
52.450371 -45.795650 6.739810
53.214893 -54.246418 2.603117
55.065559 -50.101753 3.269050
3.157241 -3.880086 -1.883757
3.416507 -3.777498 -1.894778
8.252941 -6.599793 -1.959040
8.974304 -6.441494 -1.951687
3.748452 -3.610628 -1.891127
3.999665 -3.467124 -1.866027
3.159328 -3.181600 -1.869830
3.363369 -3.047502 -1.852619
4.319610 -3.263973 -1.858423
4.620218 -3.136249 -1.856169
3.655582 -2.880701 -1.856246
3.901742 -2.754827 -1.843071
4.449089 -5.436471 -1.899157
4.898316 -5.396164 -1.905707
3.642822 -4.677133 -1.895362
3.917588 -4.512455 -1.884280
5.427420 -5.248595 -1.928242
5.957414 -5.177592 -1.943304
4.310103 -4.350850 -1.886066
4.705725 -4.264960 -1.898150
6.570396 -5.021863 -1.956716
7.042336 -4.823827 -1.935032
5.172404 -4.112947 -1.916607
5.537424 -3.953312 -1.906916
5.624949 -6.869211 -1.460378
6.246501 -6.845356 -1.444461
5.370226 -6.846939 -1.884130
5.950897 -6.811583 -1.893134
7.081306 -6.857744 -1.475987
7.820652 -6.845460 -1.454589
6.750538 -6.826296 -1.946845
7.377453 -6.696314 -1.935368
5.571934 -6.842607 -1.066018
6.172053 -6.812243 -1.062049
55.497097 -45.177006 3.690948
1.146501 -0.862384 0.285007
7.014572 -6.849365 -1.073871
7.805804 -6.873900 -1.047249
6.744010 -6.863403 -1.559536
7.472299 -6.844170 -1.568154
8.832138 -6.869200 -1.043255
9.850185 -6.865579 -1.037904
8.486840 -6.870643 -1.598857
9.432023 -6.861214 -1.621361
5.596459 -6.861369 -0.153340
40.099823 -44.043411 -1.648836
5.376434 -6.877143 -0.614633
5.939563 -6.836561 -0.552224
0.935082 -0.883963 0.179419
1.026991 -0.934848 0.189211
6.693786 -6.817946 -0.520828
7.467874 -6.848974 -0.468717
1.016210 -0.762190 0.200556
1.151208 -0.831711 0.213030
8.433389 -6.843817 -0.418488
9.420372 -6.862123 -0.384080
0.872626 -1.040384 0.291486
52.314377 -57.654083 6.191987
0.906936 -1.125288 0.226642
61.161793 -70.160889 2.324931
52.820801 -51.976498 6.463824
52.283798 -45.940491 6.737005
52.981438 -54.348892 2.600277
55.050892 -50.405342 3.277031
3.148502 -3.894319 -1.886038
3.404623 -3.788213 -1.894778
8.229116 -6.623220 -1.958257
8.955617 -6.470801 -1.952060
3.759677 -3.644499 -1.903650
3.957675 -3.452827 -1.850235
3.145507 -3.187602 -1.867336
3.360559 -3.064165 -1.856702
4.297451 -3.268398 -1.852814
4.608786 -3.149694 -1.855488
3.660811 -2.903640 -1.864249
3.891561 -2.766012 -1.842292
4.417523 -5.432498 -1.892410
4.890398 -5.421496 -1.909521
3.622362 -4.681058 -1.892079
3.897182 -4.517604 -1.881037
5.410904 -5.265619 -1.928242
5.936741 -5.192479 -1.941762
4.279191 -4.346725 -1.877815
4.683838 -4.272065 -1.894447
6.549992 -5.038921 -1.955232
7.039967 -4.854712 -1.938835
5.147577 -4.119592 -1.911808
5.546792 -3.986240 -1.915054
5.588490 -6.868486 -1.456101
6.206371 -6.844556 -1.439722
5.346305 -6.860697 -1.883218
5.920487 -6.819958 -1.890047
7.049858 -6.870289 -1.473714
7.767890 -6.842635 -1.448198
6.692185 -6.809742 -1.935316
7.373765 -6.735255 -1.940286
5.536767 -6.843115 -1.062847
6.135997 -6.815448 -1.059013
63.933102 -52.384293 4.231579
54.403942 -39.691982 4.063118
6.969037 -6.847679 -1.069429
7.745453 -6.864249 -1.040975
6.708715 -6.870451 -1.555892
7.418826 -6.838327 -1.560496
8.783957 -6.876025 -1.039453
9.779644 -6.862319 -1.031675
8.407209 -6.849781 -1.586359
9.373703 -6.864049 -1.614185
5.547296 -6.844680 -0.151537
39.923691 -44.127686 -1.647090
5.358453 -6.898729 -0.615200
5.897150 -6.831111 -0.549529
0.932300 -0.886896 0.179419
1.024049 -0.938070 0.189211
6.655671 -6.821770 -0.518991
7.406632 -6.835961 -0.465098
1.013811 -0.765379 0.200556
1.148590 -0.835324 0.213030
8.394870 -6.856344 -0.417215
9.335845 -6.845761 -0.380106
0.869353 -1.043120 0.291486
54.973011 -60.965752 6.518199
0.903396 -1.128132 0.226642
60.931904 -70.342110 2.324612
0.989004 -0.943415 0.316699
1.066097 -0.976691 0.336462
52.834072 -54.539486 2.601350
62.705627 -57.772289 3.714336
3.129347 -3.895503 -1.881476
3.401397 -3.808522 -1.900042
8.218917 -6.657708 -1.960996
8.940021 -6.502361 -1.953181
3.750859 -3.658903 -1.905123
3.970759 -3.486063 -1.862438
3.132945 -3.194856 -1.865674
3.349563 -3.073481 -1.855885
4.294571 -3.287612 -1.856319
4.581772 -3.152513 -1.847995
3.644541 -2.909370 -1.860247
3.869315 -2.768649 -1.835289
4.388428 -5.431376 -1.886788
4.852709 -5.413979 -1.900804
3.619087 -4.707443 -1.898645
3.870595 -4.515515 -1.874551
5.339426 -5.228449 -1.906945
5.918944 -5.209832 -1.941248
4.261553 -4.356064 -1.875911
4.666174 -4.282917 -1.892596
6.505087 -5.036840 -1.945831
7.035875 -4.884525 -1.942163
5.139054 -4.139352 -1.913607
5.548234 -4.013688 -1.920286
5.543463 -6.856863 -1.449328
6.178219 -6.856716 -1.438030
5.297412 -6.841963 -1.872734
5.879855 -6.816422 -1.883431
6.987485 -6.852225 -1.464295
7.741908 -6.863083 -1.447285
6.647616 -6.806905 -1.928057
7.359792 -6.764993 -1.942335
5.502887 -6.845013 -1.059964
6.092031 -6.809657 -1.054322
1.133106 -0.901278 0.273862
1.141060 -0.869570 0.285007
6.922178 -6.844376 -1.064726
7.700091 -6.867464 -1.037114
6.662517 -6.866022 -1.549332
7.335069 -6.804167 -1.545529
8.723357 -6.872746 -1.033861
9.718985 -6.865549 -1.026693
8.370424 -6.863613 -1.583070
9.326609 -6.874767 -1.609193
5.518273 -6.852712 -0.151045
39.731380 -44.193443 -1.644596
5.313731 -6.885509 -0.611607
5.856132 -6.826971 -0.547001
0.929509 -0.889820 0.179419
1.021097 -0.941283 0.189211
6.609292 -6.816806 -0.516235
7.373395 -6.848361 -0.464026
1.011401 -0.768560 0.200556
1.145960 -0.838928 0.213030
8.337883 -6.853437 -0.414553
9.283709 -6.852586 -0.378169
0.866072 -1.045846 0.291486
0.919916 -1.064959 0.309900
0.899847 -1.130964 0.226642
0.911322 -1.098012 0.237483
0.986036 -0.946517 0.316699
1.063024 -0.980036 0.336462
53.850174 -55.939804 2.655427
1.040910 -0.999936 0.263205
3.121679 -3.911122 -1.884518
3.385703 -3.815048 -1.897786
8.211616 -6.694684 -1.964519
8.906843 -6.521159 -1.950192
3.731423 -3.662813 -1.900703
3.968218 -3.505894 -1.866745
3.127940 -3.209923 -1.868998
3.342588 -3.086450 -1.857518
4.270917 -3.290733 -1.850009
4.579600 -3.172209 -1.851401
3.652452 -2.934676 -1.869851
3.917629 -2.821399 -1.864858
4.380911 -5.457144 -1.891286
4.815116 -5.406278 -1.892086
3.603141 -4.717283 -1.897988
3.876119 -4.550611 -1.884929
5.335291 -5.257418 -1.911737
5.896744 -5.223293 -1.939192
4.242582 -4.363967 -1.873372
4.656904 -4.301410 -1.894447
6.510578 -5.073995 -1.952758
7.023687 -4.908820 -1.943113
5.112728 -4.144610 -1.908208
5.530943 -4.027736 -1.918542
5.521894 -6.874244 -1.449328
6.131588 -6.848261 -1.431598
5.267613 -6.847742 -1.869543
5.844400 -6.818608 -1.878579
6.951914 -6.860243 -1.461047
7.683351 -6.854565 -1.439678
6.608560 -6.809480 -1.922506
7.337063 -6.786755 -1.941925
5.469050 -6.846767 -1.057081
6.069288 -6.827285 -1.054046
55.617500 -46.153652 3.725705
54.020180 -39.934551 4.053618
6.889427 -6.854870 -1.062636
7.656264 -6.871784 -1.033494
6.624579 -6.869886 -1.544959
7.316544 -6.829859 -1.546225
8.669080 -6.874108 -1.029163
9.640542 -6.855824 -1.019426
8.318449 -6.864689 -1.576492
9.265236 -6.874693 -1.601394
5.478061 -6.846554 -0.149816
39.770893 -44.517731 -1.652951
5.289660 -6.899002 -0.611229
5.830765 -6.840795 -0.546496
0.926709 -0.892736 0.179419
1.018135 -0.944486 0.189211
6.567149 -6.815938 -0.513939
7.329924 -6.851109 -0.462015
1.008982 -0.771733 0.200556
1.143319 -0.842524 0.213030
8.285604 -6.854068 -0.412238
9.236440 -6.862717 -0.376539
0.862782 -1.048561 0.291486
0.916566 -1.067844 0.309900
0.896290 -1.133786 0.226642
52.866604 -61.816780 2.057607
0.983057 -0.949610 0.316699
55.939548 -50.092045 7.252572
55.701973 -58.229908 2.748059
58.744587 -54.811314 3.511851
3.113944 -3.926730 -1.887559
3.362606 -3.813213 -1.891018
8.189029 -6.719199 -1.964127
8.900574 -6.559566 -1.953555
3.710683 -3.665325 -1.895547
3.937567 -3.501074 -1.856695
3.114067 -3.215791 -1.866505
3.335565 -3.099406 -1.859152
4.278254 -3.317995 -1.858423
4.568064 -3.185511 -1.850720
3.655983 -2.956579 -1.877054
3.905752 -2.831546 -1.863302
4.361363 -5.467870 -1.890161
4.767375 -5.386904 -1.879009
3.586033 -4.725559 -1.896675
3.861804 -4.562765 -1.884929
5.317384 -5.272791 -1.911204
5.875965 -5.237949 -1.937650
4.234099 -4.382753 -1.875911
4.643368 -4.316019 -1.894447
6.473313 -5.077612 -1.945831
7.017785 -4.937540 -1.945966
5.090841 -4.153380 -1.904609
5.508976 -4.038339 -1.915054
5.485594 -6.873056 -1.445050
6.096900 -6.852800 -1.428213
5.235473 -6.850299 -1.865441
5.806452 -6.817677 -1.872845
6.905189 -6.856952 -1.455201
7.626397 -6.847064 -1.432374
6.579020 -6.821746 -1.919944
7.317142 -6.811101 -1.942335
5.429127 -6.840606 -1.052757
6.030706 -6.827068 -1.050458
55.423168 -46.287151 3.722589
53.761459 -40.005184 4.044118
6.834319 -6.842720 -1.056366
7.611011 -6.874570 -1.029634
6.588040 -6.875006 -1.540950
7.286417 -6.844742 -1.544137
8.622634 -6.881416 -1.025584
9.583316 -6.860682 -1.014859
8.263521 -6.862978 -1.569256
9.207128 -6.876661 -1.594218
5.459002 -6.866866 -0.149980
39.641464 -44.654411 -1.653449
5.251135 -6.893363 -0.608582
5.784689 -6.830256 -0.543295
39.041504 -39.371597 -1.033750
1.015163 -0.947680 0.189211
6.526452 -6.816318 -0.511795
7.267566 -6.835927 -0.458262
1.006552 -0.774899 0.200556
1.140666 -0.846111 0.213030
8.241058 -6.860847 -0.410502
9.153948 -6.846379 -0.372667
0.859483 -1.051267 0.291486
56.235985 -63.559471 6.731786
0.892724 -1.136596 0.226642
0.904405 -1.103716 0.237483
0.980069 -0.952694 0.316699
55.076088 -49.631947 7.163372
55.481590 -58.365486 2.746356
37.717598 -35.427200 2.334377
3.109553 -3.946706 -1.892882
3.366580 -3.841797 -1.900794
8.148258 -6.728610 -1.959040
8.879922 -6.587496 -1.953555
3.705711 -3.683552 -1.899230
3.936330 -3.522093 -1.861720
3.106457 -3.228195 -1.868167
3.324470 -3.108631 -1.858335
4.260454 -3.325620 -1.854917
4.578106 -3.213799 -1.859575
3.641016 -2.963391 -1.873853
3.877414 -2.829788 -1.853186
4.333485 -5.467967 -1.885101
4.801468 -5.459473 -1.900804
3.555339 -4.715613 -1.887483
3.858466 -4.587859 -1.890766
5.300792 -5.289471 -1.911204
5.837835 -5.237094 -1.929939
4.195464 -4.369932 -1.863852
4.636759 -4.337054 -1.897533
6.439122 -5.083458 -1.939893
7.022890 -4.974097 -1.952146
5.079237 -4.170569 -1.905209
5.508615 -4.064669 -1.919705
5.448137 -6.870162 -1.440417
6.058313 -6.852771 -1.423813
5.196332 -6.843396 -1.858604
5.772360 -6.821031 -1.868434
6.865514 -6.860429 -1.450979
7.587208 -6.855133 -1.428723
6.529246 -6.812680 -1.910977
7.275658 -6.815371 -1.936598
5.403947 -6.852956 -1.051892
5.979076 -6.811826 -1.044110
55.366150 -46.535625 3.728236
53.649899 -40.184647 4.045148
6.801642 -6.852867 -1.054276
7.565814 -6.877140 -1.025773
6.544774 -6.872824 -1.535119
7.229010 -6.833869 -1.535435
8.563855 -6.878513 -1.020216
9.522922 -6.862928 -1.009876
8.213220 -6.864798 -1.563007
9.160171 -6.886614 -1.589226
5.409021 -6.847832 -0.148096
39.564487 -44.850658 -1.656442
5.211501 -6.885957 -0.605746
5.752902 -6.836227 -0.541947
38.941471 -39.518280 -1.034511
1.012181 -0.950864 0.189211
6.487187 -6.817958 -0.509805
7.237338 -6.850518 -0.457458
1.004113 -0.778058 0.200556
1.138002 -0.849691 0.213030
8.178226 -6.851982 -0.407377
9.129198 -6.872708 -0.372463
0.856177 -1.053962 0.291486
55.989929 -63.683430 6.726415
0.889148 -1.139395 0.226642
52.269386 -61.901840 2.050275
0.977071 -0.955768 0.316699
52.455803 -47.571709 6.851077
0.968465 -0.988024 0.248070
55.795383 -52.720829 3.364410
3.084679 -3.940368 -1.884518
3.354494 -3.852354 -1.900794
8.110521 -6.740345 -1.954735
8.881262 -6.631767 -1.958784
3.673192 -3.674031 -1.887444
3.971227 -3.575437 -1.885408
3.095050 -3.236616 -1.867336
3.316025 -3.120304 -1.859152
4.269060 -3.354124 -1.864032
4.595720 -3.247571 -1.871836
3.627454 -2.971308 -1.871452
3.838691 -2.820300 -1.837624
4.312740 -5.477017 -1.883414
4.785565 -5.475975 -1.901348
3.552893 -4.743447 -1.894705
3.862325 -4.621655 -1.900495
5.278726 -5.300614 -1.909075
5.802648 -5.238634 -1.923256
4.163469 -4.363801 -1.854966
4.628673 -4.356792 -1.900002
6.404960 -5.089137 -1.933955
6.997718 -4.989398 -1.949293
5.047053 -4.170630 -1.897411
5.495819 -4.081955 -1.919705
5.415607 -6.873300 -1.437208
6.030228 -6.864384 -1.422120
5.168967 -6.851895 -1.856324
5.726966 -6.810833 -1.860054
6.820334 -6.858112 -1.445458
7.539247 -6.855066 -1.423246
6.429883 -6.750881 -1.886211
7.229936 -6.815431 -1.929631
5.364152 -6.846476 -1.047568
5.958953 -6.832065 -1.044386
63.852558 -54.017044 4.279480
53.560070 -40.380627 4.047781
6.750921 -6.844477 -1.048789
7.505995 -6.866130 -1.019499
6.501587 -6.870438 -1.529288
7.188909 -6.838948 -1.530910
8.515979 -6.884081 -1.016413
9.475512 -6.874179 -1.006554
8.164495 -6.867643 -1.557087
9.094306 -6.882080 -1.580490
5.371505 -6.844306 -0.147031
39.358799 -44.901100 -1.653387
5.194610 -6.908675 -0.606502
5.713438 -6.832914 -0.539588
38.885647 -39.710457 -1.036706
1.009188 -0.954040 0.189211
6.447978 -6.819418 -0.507815
7.176671 -6.836162 -0.453839
1.001664 -0.781208 0.200556
1.135327 -0.853262 0.213030
8.135333 -6.859569 -0.405756
9.053342 -6.860462 -0.368998
0.852861 -1.056646 0.291486
61.660080 -70.574455 7.412748
0.885565 -1.142182 0.226642
0.897452 -1.109377 0.237483
63.189350 -64.576447 7.836608
52.310513 -47.740295 6.851638
58.059715 -61.853283 2.882275
63.825752 -60.684071 3.829936
3.067773 -3.944176 -1.881476
3.353353 -3.875431 -1.907562
8.078797 -6.756958 -1.951996
8.883985 -6.677287 -1.964388
3.662935 -3.686878 -1.888180
3.972480 -3.599115 -1.891868
3.079885 -3.241020 -1.864011
3.310204 -3.134448 -1.861601
4.264357 -3.372195 -1.866836
4.565510 -3.247916 -1.862981
3.629364 -2.992079 -1.877854
3.789654 -2.802985 -1.816614
4.291982 -5.485991 -1.881727
4.743000 -5.462013 -1.890451
3.534610 -4.750023 -1.892736
3.836854 -4.620714 -1.894658
5.256643 -5.311672 -1.906945
5.767509 -5.240003 -1.916573
4.191307 -4.421082 -1.875276
4.613577 -4.370010 -1.899384
6.364788 -5.089794 -1.926039
6.991499 -5.018125 -1.952146
5.055857 -4.204853 -1.906409
5.472209 -4.091220 -1.915636
5.373443 -6.863875 -1.431149
5.989127 -6.861075 -1.417042
5.138110 -6.855606 -1.852678
5.692989 -6.813857 -1.855643
6.765554 -6.845728 -1.437663
7.478208 -6.842789 -1.415029
6.400608 -6.762511 -1.883649
7.178591 -6.809897 -1.921025
5.328084 -6.844511 -1.044109
5.924443 -6.835820 -1.041626
1.118810 -0.918965 0.273862
53.851395 -40.865982 4.077883
6.712775 -6.848614 -1.045654
7.459497 -6.866884 -1.015396
6.466537 -6.876467 -1.525644
7.148847 -6.843842 -1.526385
8.461999 -6.884384 -1.011716
9.415251 -6.875843 -1.001571
8.096298 -6.853631 -1.546891
9.033283 -6.880779 -1.572691
5.337734 -6.845352 -0.146211
38.785355 -44.528790 -1.632874
5.146771 -6.889789 -0.602342
5.685553 -6.843184 -0.538746
38.856869 -39.931351 -1.039796
39.330582 -36.072819 -0.496963
6.412907 -6.825071 -0.506284
7.137829 -6.842149 -0.452231
0.999204 -0.784352 0.200556
1.132641 -0.856824 0.213030
8.081839 -6.857887 -0.403326
8.979243 -6.849015 -0.365635
0.849537 -1.059321 0.291486
0.903075 -1.079277 0.309900
47.958752 -64.588043 1.380036
56.373905 -67.616631 2.210078
0.971047 -0.961889 0.316699
1.047499 -0.996612 0.336462
0.962238 -0.994089 0.248070
63.608791 -60.859428 3.828455
3.056490 -3.955264 -1.882236
3.342376 -3.887346 -1.908314
8.047047 -6.773437 -1.949256
8.866102 -6.707529 -1.965135
3.640937 -3.687731 -1.882287
4.016575 -3.661618 -1.920580
3.063482 -3.244031 -1.859856
3.300340 -3.144832 -1.861601
4.253742 -3.385575 -1.866836
4.543013 -3.253540 -1.857532
3.608713 -2.994041 -1.871452
3.809023 -2.835627 -1.831399
4.271209 -5.494888 -1.880040
4.753589 -5.508840 -1.902438
3.509623 -4.747388 -1.886827
3.822318 -4.632745 -1.894658
5.260134 -5.348848 -1.914931
5.792510 -5.295779 -1.931481
4.201994 -4.460562 -1.887336
4.598443 -4.383175 -1.898767
6.362318 -5.120741 -1.930492
6.972545 -5.037799 -1.951195
5.042622 -4.220715 -1.906409
5.448595 -4.100377 -1.911566
5.344632 -6.871381 -1.429010
5.953289 -6.863519 -1.413319
5.102649 -6.852929 -1.847208
5.665302 -6.824222 -1.853438
6.727466 -6.850008 -1.433766
7.446470 -6.856902 -1.412899
6.391343 -6.795429 -1.887492
7.134449 -6.810848 -1.914469
5.299320 -6.851800 -1.042379
5.878297 -6.825950 -1.036383
64.902588 -55.609478 4.368757
53.671955 -40.996197 4.074221
6.663633 -6.841185 -1.040429
7.418909 -6.872792 -1.012259
6.424822 -6.875140 -1.520177
7.093184 -6.833561 -1.518031
8.411169 -6.886942 -1.007466
9.345444 -6.870150 -0.995343
8.061239 -6.867486 -1.543931
8.992777 -6.894744 -1.568947
5.311327 -6.855754 -0.145884
38.488205 -44.469105 -1.625393
5.113284 -6.889899 -0.600451
5.636016 -6.827283 -0.535039
38.834034 -40.159634 -1.043111
39.330269 -36.300591 -0.498996
6.375151 -6.827648 -0.504447
7.041427 -6.792696 -0.445261
0.996735 -0.787487 0.200556
1.129944 -0.860378 0.213030
8.029951 -6.857235 -0.401011
8.948159 -6.869914 -0.365024
0.846205 -1.061984 0.291486
0.899680 -1.082109 0.309900
47.768665 -64.756111 1.380358
51.938858 -62.699577 2.059383
53.833462 -55.705841 6.747947
59.322227 -54.821571 7.786465
55.742268 -60.135929 2.792735
1.021878 -1.019378 0.263205
3.049644 -3.972212 -1.886038
3.328936 -3.896424 -1.907562
8.027222 -6.799956 -1.949648
8.852816 -6.741281 -1.967003
3.621560 -3.691148 -1.877867
3.981565 -3.652877 -1.908378
3.039667 -3.238968 -1.850713
3.289119 -3.153929 -1.860785
4.244541 -3.400100 -1.867537
4.526648 -3.263426 -1.854807
3.589487 -2.997086 -1.865849
3.829705 -2.869514 -1.846961
4.255093 -5.509803 -1.880602
4.713619 -5.497532 -1.892631
3.472460 -4.727839 -1.873696
3.819803 -4.659308 -1.901144
5.241961 -5.363964 -1.914399
5.800099 -5.336118 -1.940220
4.203444 -4.490422 -1.894952
4.576380 -4.389732 -1.895064
6.359716 -5.151724 -1.934945
6.967705 -5.067644 -1.954523
5.019157 -4.227892 -1.902210
5.435686 -4.117474 -1.911566
5.309832 -6.870968 -1.425089
5.900710 -6.846442 -1.405195
5.067255 -6.850096 -1.841738
5.674979 -6.879518 -1.864465
6.683921 -6.848454 -1.428569
7.391465 -6.849446 -1.405900
6.335378 -6.778264 -1.876390
7.094618 -6.815645 -1.909141
5.271761 -6.860550 -1.040938
5.833564 -6.817360 -1.031415
1.113014 -0.925977 0.273862
53.455803 -41.097706 4.067925
6.620105 -6.839230 -1.036248
7.356521 -6.858263 -1.005503
6.381845 -6.872175 -1.514346
7.054668 -6.839406 -1.513855
8.351222 -6.881643 -1.001874
9.299789 -6.881780 -0.992229
8.012724 -6.869597 -1.538011
8.941303 -6.900098 -1.563019
5.280050 -6.859709 -0.145228
37.627125 -43.751980 -1.590914
5.084554 -6.896293 -0.599317
5.606928 -6.835733 -0.534028
38.801842 -40.379520 -1.046156
39.265873 -36.470215 -0.499894
6.338795 -6.831522 -0.502763
7.047326 -6.841119 -0.447808
0.994256 -0.790614 0.200556
1.127235 -0.863924 0.213030
7.976637 -6.855022 -0.398580
8.874284 -6.857809 -0.361661
0.842865 -1.064637 0.291486
0.896276 -1.084930 0.309900
47.615803 -64.975227 1.381613
51.805191 -62.939617 2.061661
0.964984 -0.967971 0.316699
54.409309 -50.602074 7.178706
55.478603 -60.229858 2.789264
1.018671 -1.022583 0.263205
3.049406 -3.998015 -1.894403
3.305820 -3.894203 -1.900794
8.002840 -6.822587 -1.948865
8.828469 -6.766676 -1.966256
3.576371 -3.667723 -1.858714
3.945271 -3.642693 -1.895457
3.033175 -3.252514 -1.853207
3.279194 -3.164246 -1.860785
4.213502 -3.396862 -1.857722
4.522480 -3.282020 -1.857532
3.595417 -3.021403 -1.874653
3.795563 -2.862808 -1.833733
4.243576 -5.530779 -1.883414
4.686298 -5.500630 -1.888272
3.456483 -4.737194 -1.873040
3.821963 -4.691749 -1.910224
5.219731 -5.374854 -1.912269
5.737783 -5.312445 -1.923770
4.190601 -4.505000 -1.895587
4.580431 -4.421191 -1.903088
6.352488 -5.179054 -1.937914
6.926614 -5.071222 -1.946916
5.010201 -4.247357 -1.904009
5.410515 -4.125295 -1.906916
5.277475 -6.873535 -1.421880
5.879171 -6.864945 -1.405195
5.036523 -6.853400 -1.838091
5.599975 -6.832592 -1.845499
6.641822 -6.848112 -1.423698
7.356868 -6.860534 -1.403162
6.325983 -6.811051 -1.880233
7.054829 -6.820261 -1.903814
5.225063 -6.843967 -1.034884
5.805680 -6.828126 -1.030035
53.189400 -46.150070 3.635356
53.718170 -41.568336 4.096311
6.575284 -6.835636 -1.031807
7.318973 -6.866438 -1.002849
6.338950 -6.869008 -1.508515
7.006294 -6.835475 -1.507241
8.295973 -6.879853 -0.996953
9.233381 -6.877791 -0.986416
7.961294 -6.868888 -1.531433
8.868005 -6.888283 -1.552724
5.224618 -6.831714 -0.142934
38.564064 -45.126293 -1.642476
5.045290 -6.888085 -0.596481
5.569000 -6.833280 -0.531838
38.808670 -40.641552 -1.050501
39.230034 -36.667099 -0.501319
6.293045 -6.824945 -0.500007
7.004332 -6.842366 -0.445797
0.991768 -0.793734 0.200556
1.124516 -0.867461 0.213030
7.943006 -6.869568 -0.397654
8.829004 -6.867314 -0.360133
0.839516 -1.067280 0.291486
0.892863 -1.087741 0.309900
47.683201 -65.498047 1.388357
51.873135 -63.427006 2.071224
51.760414 -54.237350 6.537087
1.038060 -1.006440 0.336462
54.837116 -59.909729 2.768125
58.249306 -56.795483 3.553484
3.024626 -3.991295 -1.886038
3.288762 -3.898927 -1.897786
7.973941 -6.841292 -1.946908
8.811844 -6.797968 -1.967376
3.593148 -3.708462 -1.874921
3.990129 -3.706894 -1.924887
3.024171 -3.263369 -1.854038
3.261336 -3.166947 -1.855885
4.225991 -3.429076 -1.868939
4.495388 -3.284088 -1.850039
3.588693 -3.035066 -1.876254
3.783603 -2.872506 -1.832177
4.228495 -5.547144 -1.884538
4.675238 -5.522647 -1.890996
3.466928 -4.783323 -1.888140
3.794042 -4.687613 -1.903090
5.201486 -5.389834 -1.911737
5.723902 -5.333069 -1.924798
4.135420 -4.473401 -1.875276
4.544599 -4.414440 -1.893213
6.309292 -5.176775 -1.929007
6.920053 -5.099845 -1.949769
4.989600 -4.256856 -1.901010
5.382303 -4.130680 -1.901102
5.247534 -6.879102 -1.419385
5.834504 -6.856427 -1.399102
5.010394 -6.862884 -1.836268
5.554994 -6.821480 -1.837118
6.612082 -6.860396 -1.421749
7.307826 -6.857982 -1.397380
6.276811 -6.800662 -1.871266
7.005233 -6.815165 -1.895618
5.198770 -6.854027 -1.033730
5.772654 -6.832747 -1.027551
53.015568 -46.291973 3.633506
53.985981 -42.047153 4.125268
6.540115 -6.841889 -1.029194
7.288682 -6.881243 -1.001401
6.310712 -6.881623 -1.506693
6.962239 -6.835436 -1.501672
8.256045 -6.890555 -0.994269
9.184628 -6.886541 -0.982886
7.912919 -6.870518 -1.525513
8.822933 -6.897911 -1.548044
5.210354 -6.857662 -0.143426
38.488129 -45.324905 -1.645656
5.022458 -6.902287 -0.596291
5.546245 -6.849196 -0.531669
38.770214 -40.857590 -1.053412
37.619381 -35.385117 -0.474233
6.258141 -6.829940 -0.498476
6.955693 -6.837830 -0.443251
0.989269 -0.796846 0.200556
1.121785 -0.870989 0.213030
7.889826 -6.866882 -0.395224
8.785326 -6.877831 -0.358706
0.836159 -1.069912 0.291486
0.889442 -1.090540 0.309900
0.867515 -1.155951 0.226642
53.096531 -65.339569 2.122594
0.958883 -0.974015 0.316699
1.034893 -1.009696 0.336462
52.551071 -57.774128 2.669688
58.383072 -57.284611 3.571503
3.025330 -4.018579 -1.895164
3.272903 -3.904998 -1.895530
7.927225 -6.844456 -1.940255
8.798217 -6.831625 -1.969244
3.585328 -3.723769 -1.877130
3.916827 -3.662337 -1.892586
3.022475 -3.282271 -1.859856
3.255309 -3.180982 -1.858335
4.233983 -3.457828 -1.878054
4.503290 -3.311478 -1.858213
3.547189 -3.018825 -1.857846
3.786320 -2.893263 -1.838402
4.215659 -5.566539 -1.886788
4.652888 -5.531435 -1.888817
3.452981 -4.795728 -1.888796
3.776912 -4.696571 -1.901792
5.175221 -5.396376 -1.908010
5.749551 -5.390545 -1.940220
4.129008 -4.494783 -1.879085
4.549830 -4.447234 -1.901853
6.276604 -5.182946 -1.923565
6.900869 -5.119255 -1.948818
4.981973 -4.277505 -1.903410
5.361704 -4.141748 -1.898196
5.210505 -6.875118 -1.414751
5.814211 -6.876223 -1.399440
4.975146 -6.859632 -1.830798
5.517525 -6.819231 -1.831384
6.559190 -6.848269 -1.414279
7.248786 -6.845716 -1.389468
6.283063 -6.850664 -1.880233
6.961349 -6.815288 -1.889061
5.162977 -6.851315 -1.030271
5.743492 -6.841767 -1.025895
53.157890 -46.711575 3.652199
1.113183 -0.904983 0.285007
6.447782 -6.787448 -1.015608
7.229513 -6.868650 -0.995127
6.263972 -6.873727 -1.499769
6.921066 -6.837948 -1.496799
8.190312 -6.879282 -0.987782
9.135910 -6.895051 -0.979357
7.864613 -6.871911 -1.519593
8.770114 -6.901234 -1.541804
5.171997 -6.851617 -0.142278
38.188194 -45.259270 -1.638049
4.984488 -6.895392 -0.593644
5.499624 -6.835607 -0.528300
38.734901 -41.078156 -1.056457
37.553074 -35.545719 -0.475052
6.223270 -6.834785 -0.496945
6.911419 -6.837254 -0.441106
0.986761 -0.799950 0.200556
1.119043 -0.874509 0.213030
7.832245 -6.859972 -0.392446
8.705521 -6.859792 -0.354936
0.832794 -1.072534 0.291486
0.886011 -1.093329 0.309900
47.919189 -66.699562 1.404590
0.876383 -1.126095 0.237483
55.565315 -58.964722 7.048239
55.634518 -52.726967 7.399182
52.401466 -57.974537 2.671202
60.837120 -60.067127 3.723881
3.012691 -4.028065 -1.895164
3.278517 -3.936530 -1.906811
7.893865 -6.859005 -1.937124
8.756548 -6.843549 -1.964388
3.571055 -3.732315 -1.875657
3.969491 -3.734437 -1.926323
3.017029 -3.297146 -1.863180
3.242682 -3.188648 -1.856702
4.202920 -3.454364 -1.868238
4.511064 -3.338949 -1.866387
3.519678 -3.014354 -1.847442
3.787478 -2.912951 -1.843849
4.185520 -5.562837 -1.880602
4.672671 -5.590187 -1.905162
3.448821 -4.821967 -1.895362
3.764514 -4.711360 -1.903090
5.154267 -5.408407 -1.906412
5.717074 -5.394042 -1.934565
4.108504 -4.500702 -1.875911
4.546729 -4.472134 -1.906791
6.269208 -5.210098 -1.926533
6.886312 -5.142067 -1.949293
4.981458 -4.304413 -1.908808
5.351696 -4.160910 -1.899358
5.184165 -6.885150 -1.413325
5.770951 -6.868862 -1.393686
4.945637 -6.864143 -1.827607
5.493621 -6.833497 -1.830502
6.526791 -6.857376 -1.411681
7.210007 -6.852159 -1.385816
6.232645 -6.838517 -1.870839
6.918931 -6.816571 -1.882914
5.137884 -6.862738 -1.029406
5.693958 -6.826395 -1.019824
53.043789 -46.907463 3.654341
1.110335 -0.908476 0.285007
6.453570 -6.836585 -1.020834
7.176249 -6.861227 -0.989818
6.235768 -6.886067 -1.497947
6.874342 -6.834730 -1.490534
8.138367 -6.879244 -0.983309
9.068189 -6.888928 -0.973336
7.813420 -6.870458 -1.513015
8.708050 -6.896957 -1.533692
5.143282 -6.858218 -0.141787
38.182026 -45.541336 -1.644658
4.958175 -6.904533 -0.592888
5.475623 -6.849743 -0.527963
38.713615 -41.314960 -1.059996
39.171021 -37.309532 -0.506573
6.187096 -6.837996 -0.495261
6.877143 -6.846297 -0.439900
0.984243 -0.803046 0.200556
1.116290 -0.878021 0.213030
7.786742 -6.863359 -0.390594
8.683927 -6.887107 -0.354936
0.829420 -1.075145 0.291486
0.882572 -1.096107 0.309900
0.860234 -1.161379 0.226642
0.872841 -1.128843 0.237483
0.952744 -0.980021 0.316699
1.028528 -1.016179 0.336462
60.824894 -67.726715 3.077887
60.598480 -60.208668 3.721001
3.005499 -4.044961 -1.898966
3.249492 -3.926906 -1.896282
7.844285 -6.859171 -1.929689
8.719535 -6.858915 -1.960652
3.556763 -3.740807 -1.874184
3.941399 -3.731566 -1.917709
3.016384 -3.317433 -1.869830
3.210462 -3.177115 -1.842819
4.196361 -3.471154 -1.870342
4.500552 -3.353105 -1.866387
3.504664 -3.020579 -1.844241
3.784160 -2.929315 -1.846961
4.170310 -5.579042 -1.881727
4.668667 -5.621074 -1.911156
3.421693 -4.815784 -1.888140
3.739050 -4.709873 -1.897252
5.162344 -5.451256 -1.916528
5.701507 -5.413302 -1.935079
4.100686 -4.520638 -1.879085
4.527227 -4.481065 -1.904322
6.248362 -5.226024 -1.925049
6.838995 -5.140426 -1.939786
4.950694 -4.304950 -1.901610
5.346157 -4.183570 -1.902265
5.153117 -6.888769 -1.410474
5.734132 -6.868844 -1.389624
4.909377 -6.859015 -1.821681
5.451352 -6.824872 -1.823004
6.472764 -6.843347 -1.403886
7.166964 -6.854339 -1.381252
6.198054 -6.843544 -1.866569
6.876573 -6.817657 -1.876767
5.108236 -6.845364 -1.024794
5.679416 -6.830772 -1.018996
52.880413 -46.911160 3.648499
1.108906 -0.910219 0.285007
6.419789 -6.822100 -1.016392
7.151097 -6.858785 -0.987405
6.206553 -6.875366 -1.492845
6.846819 -6.828876 -1.486357
8.106373 -6.873972 -0.980177
9.011395 -6.868301 -0.967315
7.777525 -6.860475 -1.507424
8.666214 -6.886120 -1.527453
5.114630 -6.842227 -0.140558
38.150208 -45.648792 -1.646591
4.923092 -6.878238 -0.588917
5.436187 -6.822574 -0.524088
38.734615 -41.467812 -1.062817
39.167332 -37.423485 -0.507576
6.093798 -6.755664 -0.485769
6.830987 -6.821934 -0.436549
0.982980 -0.804591 0.200556
1.114910 -0.879773 0.213030
7.744610 -6.847730 -0.388164
8.627687 -6.864782 -0.351980
0.827730 -1.076446 0.291486
0.880849 -1.097492 0.309900
0.858409 -1.162729 0.226642
0.871066 -1.130213 0.237483
56.318649 -60.331963 7.176068
1.026931 -1.017793 0.336462
0.941739 -1.013530 0.248070
63.543514 -63.331577 3.897650
3.000235 -4.051170 -1.899726
3.246879 -3.936277 -1.898538
7.815847 -6.855920 -1.924993
8.694843 -6.861681 -1.957290
3.555971 -3.751814 -1.877130
3.943690 -3.745426 -1.922016
3.005100 -3.315392 -1.865674
3.221104 -3.197500 -1.852619
4.193775 -3.480148 -1.871744
4.504347 -3.366884 -1.870474
3.501294 -3.027286 -1.845041
3.801473 -2.952088 -1.858633
4.171810 -5.599477 -1.886788
4.621626 -5.582587 -1.894265
3.420634 -4.830433 -1.892079
3.742270 -4.729047 -1.903090
5.153775 -5.459359 -1.916528
5.673340 -5.403654 -1.927883
4.094845 -4.528486 -1.879719
4.521538 -4.489505 -1.904939
6.229782 -5.227080 -1.921586
6.834022 -5.153491 -1.940737
4.948225 -4.316501 -1.903410
5.347126 -4.197843 -1.905172
5.114172 -6.858904 -1.401919
5.704358 -6.855171 -1.384547
4.886210 -6.849242 -1.816667
5.427209 -6.816679 -1.818152
6.452557 -6.843430 -1.401613
7.111858 -6.823282 -1.371818
6.170329 -6.834372 -1.861018
6.850548 -6.813307 -1.872259
5.084359 -6.858191 -1.024217
5.640204 -6.827252 -1.015132
1.096849 -0.945069 0.273862
55.137257 -43.925304 4.243731
6.390224 -6.833523 -1.014825
7.103736 -6.856466 -0.983061
6.161361 -6.868414 -1.486285
6.794669 -6.819740 -1.478699
8.051548 -6.870941 -0.975256
8.985033 -6.892956 -0.966693
7.730909 -6.862547 -1.501833
8.573435 -6.856721 -1.513101
5.080058 -6.840572 -0.139657
38.079441 -45.856045 -1.650145
4.901460 -6.893671 -0.588917
5.419694 -6.845854 -0.524762
38.710201 -41.703648 -1.066311
39.105820 -37.600376 -0.508605
6.116328 -6.823902 -0.490821
6.802465 -6.836307 -0.435879
0.980448 -0.807675 0.200556
1.112140 -0.883271 0.213030
7.700735 -6.852062 -0.386428
8.557654 -6.853261 -0.348821
0.824344 -1.079041 0.291486
0.877397 -1.100254 0.309900
0.854752 -1.165420 0.226642
0.867512 -1.132944 0.237483
0.948116 -0.984499 0.316699
1.023728 -1.021014 0.336462
63.626457 -71.523293 3.226174
63.292034 -63.478550 3.894606
2.977696 -4.047115 -1.892882
3.229769 -3.940748 -1.895530
7.769330 -6.858312 -1.918340
8.645499 -6.867031 -1.950566
