ply
format ascii 1.0
element vertex 1664
property float x
property float y
property float z
end_header
7.943007 4.957080 -1.965029
10.743946 8.007979 -2.058964
11.095909 9.200284 -2.073542
7.948102 5.668854 -1.982286
8.042508 6.419238 -2.003805
13.573680 7.805920 -2.061455
13.968035 9.095233 -2.103615
24.258118 21.611660 1.786714
25.124306 25.007408 2.234782
14.339000 10.584903 -2.130428
14.961459 12.341535 -2.140366
9.928525 7.025874 -2.030382
10.017675 7.929280 -2.035267
15.386709 14.290105 -2.147346
15.823853 16.387329 -2.162333
10.193120 9.113742 -2.057993
10.336006 10.268365 -2.080294
23.942204 13.771840 -0.922780
24.021929 15.665507 -0.685551
22.108337 12.117071 -2.179864
23.997818 14.946460 -2.176734
23.925571 17.589296 -0.456927
23.594275 19.472532 -0.196300
24.061949 16.966421 -2.047670
24.174486 19.156343 -1.859825
24.305777 22.524017 0.040445
24.527308 25.380920 0.375215
24.252556 21.584635 -1.670925
24.415594 24.274254 -1.545976
24.030645 13.743031 2.021146
24.810190 16.117392 2.478147
24.633442 13.491797 0.615593
24.115042 14.988919 0.851690
24.870592 18.275795 2.809469
24.320250 20.040339 3.160203
24.059912 16.922819 1.132932
23.565010 18.619020 1.440350
4.351573 2.489621 -1.888320
4.296834 2.765758 -1.901546
8.124440 7.311777 -2.031438
8.184167 8.177432 -2.051054
4.151248 3.095866 -1.880814
4.111496 3.416130 -1.886126
3.676874 2.616557 -1.883128
3.605166 2.864125 -1.882016
4.015757 3.818591 -1.906098
3.932256 4.140382 -1.901808
3.483133 3.180167 -1.883457
3.435030 3.486188 -1.892871
6.144348 3.538038 -1.918274
6.190305 4.000642 -1.929136
5.203993 2.831855 -1.894049
5.121661 3.151505 -1.897252
6.045897 4.490101 -1.922918
6.062711 5.023647 -1.938164
5.015623 3.560387 -1.894952
5.003200 3.973215 -1.910494
6.012267 5.655591 -1.952758
5.983984 6.247050 -1.963080
4.909348 4.443543 -1.920806
4.828171 4.847964 -1.918542
10.324604 5.939332 -2.009687
10.667054 6.944402 -2.038869
7.907928 4.336994 -1.958430
7.965164 4.936228 -1.966793
10.769053 7.974183 -2.058964
11.126284 9.166636 -2.073846
7.956290 5.637103 -1.979724
8.054983 6.387836 -2.001755
13.599859 7.764213 -2.061743
13.994880 9.050225 -2.103339
24.237591 21.457289 1.780970
25.097776 24.824364 2.226312
14.383390 10.547990 -2.132257
15.006297 12.299511 -2.141331
9.947328 6.992392 -2.029654
10.047176 7.901429 -2.036311
15.416910 14.228232 -2.145109
15.889108 16.351816 -2.164409
10.215796 9.076443 -2.056677
10.365409 10.233058 -2.079670
23.938480 13.669839 -0.920568
24.024082 15.559489 -0.683805
22.165545 12.057995 -2.181944
23.988758 14.836344 -2.171174
23.985561 17.517570 -0.457061
23.595074 19.348801 -0.195271
24.056299 16.849606 -2.042158
24.176580 19.034576 -1.854866
24.302814 22.379862 0.040948
24.524727 25.219076 0.374650
24.252895 21.448860 -1.665717
24.415073 24.121563 -1.540474
23.999037 13.625163 2.015507
24.805441 16.003639 2.473084
24.680984 13.417196 0.615681
24.117802 14.885736 0.850506
25.030973 18.272682 2.820247
24.426205 19.999186 3.165439
24.058855 16.809408 1.130849
23.549566 18.486830 1.436483
4.367440 2.480463 -1.892122
4.305502 2.752244 -1.901546
8.147372 7.286215 -2.031438
8.205646 8.147515 -2.049933
4.166953 3.087206 -1.883760
4.116474 3.398414 -1.883254
3.674637 2.597702 -1.877309
3.612720 2.851645 -1.881200
4.029102 3.807235 -1.906799
3.941366 4.123911 -1.899764
3.494471 3.170432 -1.884257
3.433063 3.462227 -1.885090
6.155433 3.518716 -1.918274
6.212539 3.987445 -1.932405
5.214530 2.816381 -1.894705
5.133147 3.136391 -1.897901
6.058420 4.469946 -1.922385
6.081441 5.007041 -1.939192
5.023674 3.542438 -1.893683
5.015659 3.957476 -1.910494
6.025747 5.632716 -1.951273
6.000893 6.225412 -1.962129
4.927557 4.431908 -1.922606
4.839331 4.828700 -1.916798
10.358613 5.915614 -2.012895
10.688820 6.910853 -2.038869
7.930080 4.316758 -1.960709
7.970683 4.905017 -1.964147
10.802014 7.946141 -2.060588
11.156557 9.132890 -2.074150
7.973961 5.612077 -1.979724
8.071943 6.360066 -2.000936
13.627629 7.723399 -2.062320
14.006590 8.995485 -2.100579
24.238838 21.323040 1.776686
25.077452 24.648748 2.218415
14.397204 10.488772 -2.129122
15.034096 12.243519 -2.139642
9.969245 6.961108 -2.029654
10.070398 7.868612 -2.035963
15.454198 14.173024 -2.143991
15.927893 16.289005 -2.162540
10.257590 9.056032 -2.059637
10.394690 10.197675 -2.079046
23.925646 13.563087 -0.917946
24.019070 15.449288 -0.681810
22.203316 11.988304 -2.181944
23.989418 14.732710 -2.166625
24.056669 17.453865 -0.457509
23.595316 19.225266 -0.194241
24.050148 16.733006 -2.036647
24.168716 18.905609 -1.849103
24.288832 22.226513 0.041520
24.443085 24.977407 0.373549
24.252619 21.313311 -1.660508
24.415241 23.970520 -1.535073
24.015629 13.535033 2.013540
24.790150 15.883624 2.467100
24.696598 13.325379 0.615243
24.106516 14.774321 0.848958
25.177038 18.258234 2.829510
24.419449 19.865753 3.157024
24.054028 16.693909 1.128641
23.549261 18.367239 1.433438
4.370362 2.464031 -1.889841
4.307889 2.734700 -1.898538
8.162876 7.254089 -2.029482
8.231199 8.121697 -2.049933
4.172121 3.070816 -1.881550
4.135754 3.392611 -1.887561
3.679789 2.584072 -1.875647
3.614510 2.834608 -1.877117
4.041042 3.794560 -1.906799
3.959491 4.116955 -1.902489
3.501678 3.156999 -1.882656
3.449100 3.456670 -1.888202
6.171474 3.502186 -1.919961
6.210463 3.958548 -1.927501
5.230027 2.803527 -1.897331
5.144588 3.121239 -1.898549
6.066195 4.446354 -1.920256
6.103107 4.992827 -1.941248
5.039452 3.529884 -1.895587
5.031051 3.944060 -1.911728
6.047684 5.617702 -1.952758
6.028511 6.214921 -1.964981
4.938599 4.413875 -1.921406
4.854475 4.813474 -1.916798
10.377144 5.883044 -2.012895
10.710476 6.877242 -2.038869
7.935022 4.287221 -1.958430
7.989375 4.881997 -1.965029
10.815753 7.904039 -2.058315
11.174474 9.089047 -2.072020
7.989947 5.585884 -1.979297
8.090345 6.333467 -2.000526
13.644919 7.676680 -2.061167
14.036448 8.952508 -2.100855
24.231955 21.182430 1.771916
25.059128 24.476301 2.210746
14.428473 10.442332 -2.128860
15.060151 12.186222 -2.137712
9.995919 6.933108 -2.030747
10.093514 7.835726 -2.035615
15.507469 14.132426 -2.145333
15.987349 16.247406 -2.163786
10.280046 9.018570 -2.058322
10.423849 10.162208 -2.078422
23.999496 13.505470 -0.919421
24.011925 15.338196 -0.679752
22.254917 11.926004 -2.183457
23.982866 14.625065 -2.161402
24.072426 17.350182 -0.456434
23.576380 19.086807 -0.192895
24.046783 16.618876 -2.031442
24.179176 18.791590 -1.844948
24.290422 22.088259 0.041983
24.441502 24.819216 0.373004
24.248720 21.175348 -1.655069
24.400421 23.805761 -1.528653
23.988327 13.420613 2.008295
24.777708 15.766004 2.461422
24.688951 13.221344 0.614426
24.091352 14.661043 0.847318
25.328110 18.246538 2.839279
24.422926 19.741327 3.149918
24.043770 16.575203 1.126243
23.523186 18.228224 1.429078
4.363511 2.442234 -1.882997
4.308645 2.716172 -1.894778
8.185623 7.228409 -2.029482
8.249673 8.088905 -2.048065
4.190786 3.064234 -1.885970
4.143509 3.377229 -1.886126
3.695379 2.577660 -1.879803
3.633433 2.831151 -1.882833
4.050191 3.779303 -1.905397
3.965896 4.097710 -1.899083
3.508834 3.143553 -1.881056
3.466435 3.452353 -1.892093
6.172392 3.477165 -1.916587
6.221245 3.937984 -1.926956
5.230451 2.782684 -1.894049
5.154368 3.105062 -1.898549
6.081697 4.428406 -1.920788
6.118762 4.973630 -1.941248
5.042709 3.508652 -1.892413
5.037432 3.923535 -1.909259
6.056733 5.590817 -1.949789
6.042594 6.190376 -1.963080
4.958167 4.403385 -1.923805
4.862783 4.791460 -1.913892
10.383554 5.843686 -2.010400
10.725389 6.839308 -2.037515
7.957045 4.266850 -1.960709
7.993018 4.849759 -1.961942
10.846927 7.874648 -2.059614
11.213717 9.062614 -2.074150
7.991377 5.549655 -1.975027
8.114827 6.311639 -2.001755
13.660320 7.628967 -2.059726
14.076204 8.915809 -2.102787
24.216881 21.035526 1.766658
25.041397 24.305605 2.203192
14.456371 10.393489 -2.128077
15.084447 12.127638 -2.135540
9.994944 6.886101 -2.025645
10.114964 7.801569 -2.034919
15.532617 14.066321 -2.142425
16.022930 16.181538 -2.161503
10.312796 8.990113 -2.059308
10.455721 10.129412 -2.078422
24.157005 13.494223 -0.924829
24.024559 15.240169 -0.678443
22.302824 11.861635 -2.184591
23.982693 14.521741 -2.156853
24.081261 17.241922 -0.455180
23.615978 18.996336 -0.192551
24.051163 16.510565 -2.027002
24.159166 18.654493 -1.838246
24.288414 21.947542 0.042465
24.420879 24.642797 0.372333
24.238155 21.032396 -1.649166
24.391970 23.648291 -1.522743
23.981491 13.318107 2.004624
24.764776 15.648622 2.455745
24.682663 13.118423 0.613637
23.985071 14.493115 0.843265
1.096849 0.815527 0.316699
24.421213 19.613333 3.142251
24.051161 16.469133 1.124539
23.512289 18.101761 1.425540
4.385757 2.436524 -1.889841
4.321854 2.705598 -1.897034
8.212722 7.206529 -2.030656
8.279257 8.067074 -2.049186
4.200391 3.051054 -1.885970
4.155543 3.365378 -1.886843
3.691448 2.557819 -1.873154
3.643746 2.820849 -1.883650
4.062044 3.766562 -1.905397
3.983973 4.090643 -1.901808
3.524195 3.137359 -1.884257
3.462934 3.427114 -1.883533
6.200071 3.467065 -1.922210
6.243339 3.924601 -1.930226
5.237491 2.765364 -1.893392
5.165716 3.089833 -1.899198
6.097144 4.410403 -1.921321
6.129857 4.950726 -1.939706
5.061531 3.498152 -1.895587
5.055731 3.912373 -1.911728
6.087155 5.583511 -1.954242
6.048438 6.157463 -1.958326
4.967669 4.384017 -1.922006
4.875087 4.773471 -1.912729
10.408743 5.814862 -2.011826
10.740169 6.801349 -2.036161
7.960080 4.236373 -1.957974
8.019891 4.831706 -1.965029
10.861995 7.833627 -2.057665
11.232897 9.019900 -2.072325
8.021663 5.533365 -1.978443
8.126886 6.280111 -1.999707
13.658438 7.599827 -2.057419
14.060071 8.874610 -2.097819
24.166773 20.925610 1.761304
24.977736 24.167589 2.195065
14.511401 10.398433 -2.134347
15.091097 12.093980 -2.133610
10.013865 6.875942 -2.027467
10.128765 7.786875 -2.035267
15.559121 14.045897 -2.143096
16.034325 16.142223 -2.159426
10.306022 8.955829 -2.054704
10.477293 10.118475 -2.079670
24.258537 13.500891 -0.928598
23.984293 15.161766 -0.676074
22.305584 11.818216 -2.182889
23.952602 14.452085 -2.151630
24.043171 17.157675 -0.453389
23.547562 18.880323 -0.190888
24.022724 16.435658 -2.021950
24.136286 18.576315 -1.833823
24.245531 21.839821 0.042988
24.386290 24.530602 0.371835
24.206184 20.938187 -1.644189
24.351583 23.534929 -1.517240
23.942980 13.247629 2.000166
24.723553 15.568205 2.449761
24.666103 13.060022 0.613024
23.941034 14.415138 0.841489
25.434914 18.142012 2.841468
24.377422 19.515156 3.133275
24.030739 16.399826 1.122773
23.459896 18.002691 1.421344
4.387956 2.428745 -1.889080
4.322964 2.696829 -1.895530
8.216634 7.187182 -2.028699
8.293324 8.055432 -2.049560
4.197620 3.039039 -1.882287
4.162270 3.360026 -1.887561
3.699970 2.555093 -1.875647
3.636660 2.806134 -1.877117
4.070718 3.762707 -1.906799
3.982545 4.076275 -1.897721
3.526363 3.129402 -1.882656
3.474836 3.428175 -1.887424
6.207189 3.458250 -1.922772
6.244614 3.911707 -1.928591
5.251884 2.762367 -1.897331
5.164079 3.077814 -1.896604
6.100928 4.398576 -1.920256
6.142131 4.944743 -1.941248
5.067019 3.490198 -1.895587
5.049858 3.895083 -1.906791
6.080141 5.559608 -1.948799
6.070337 6.160446 -1.962604
4.974549 4.376209 -1.922006
4.892128 4.775201 -1.916798
10.405811 5.791833 -2.009330
10.747509 6.782361 -2.035484
7.971893 4.226586 -1.959341
8.017451 4.813050 -1.962382
10.871074 7.814259 -2.057015
11.245510 9.001008 -2.072020
8.031957 5.521861 -1.978870
8.132096 6.263742 -1.998477
13.696120 7.564508 -2.059726
14.097943 8.836718 -2.099475
24.168755 20.794907 1.757215
24.965805 24.004505 2.188083
14.539148 10.349345 -2.133563
15.121261 12.040311 -2.132403
10.032165 6.842237 -2.026738
10.151619 7.753814 -2.034919
15.579477 13.975739 -2.139517
16.084963 16.091764 -2.159426
10.335605 8.924690 -2.055033
10.500493 10.077285 -2.077798
24.432091 13.496956 -0.934743
23.989511 15.059725 -0.674515
22.339077 11.746226 -2.182511
23.948341 14.347013 -2.146744
24.044727 17.045094 -0.451956
23.548929 18.760092 -0.189911
24.016481 16.320921 -2.016591
24.126415 18.448214 -1.828060
24.243938 21.700901 0.043460
24.377022 24.367546 0.371251
24.176386 20.780111 -1.636897
24.330399 23.366919 -1.510514
23.937229 13.146443 1.996625
24.703062 15.447042 2.443470
24.657423 12.956459 0.612207
23.945044 14.315185 0.840396
25.410435 18.004471 2.833047
24.295336 19.324310 3.116071
24.055656 16.306320 1.121763
23.460760 17.886440 1.418464
4.400442 2.417593 -1.891361
4.323564 2.678313 -1.891770
8.243625 7.165180 -2.029873
8.315771 8.026601 -2.048812
4.201088 3.021523 -1.879340
4.169906 3.344582 -1.886126
3.709485 2.544476 -1.876479
3.656999 2.803647 -1.883650
4.068666 3.737292 -1.899788
4.009767 4.078558 -1.905214
3.530652 3.113488 -1.879455
3.492133 3.423724 -1.891315
6.218023 3.438730 -1.922772
6.245460 3.884913 -1.924777
5.250465 2.740652 -1.893392
5.173724 3.061573 -1.896604
6.113146 4.378269 -1.919723
6.163657 4.930270 -1.943304
5.079529 3.475325 -1.896222
5.065080 3.881524 -1.908025
6.107646 5.549568 -1.952263
6.086934 6.138576 -1.961653
4.982508 4.355557 -1.919606
4.918056 4.770508 -1.921449
10.436028 5.765746 -2.011826
10.762091 6.744359 -2.034130
7.983407 4.200617 -1.958886
8.039226 4.791850 -1.964147
10.892356 7.777777 -2.056366
11.272189 8.964397 -2.071716
8.041183 5.491111 -1.976735
8.156390 6.241743 -1.999707
13.721557 7.522388 -2.060014
14.108837 8.781887 -2.096715
24.154959 20.651432 1.752152
24.943001 23.832073 2.180300
14.579696 10.309326 -2.134869
15.137240 11.975468 -2.129025
10.050352 6.808484 -2.026009
10.168098 7.715913 -2.033178
15.630737 13.933327 -2.140636
16.131214 16.036936 -2.158803
10.360594 8.889608 -2.054375
10.534960 10.046976 -2.078422
24.583065 13.479594 -0.939823
23.989239 14.954627 -0.672769
22.381172 11.678739 -2.183079
23.940233 14.240066 -2.141521
24.053993 16.938417 -0.450746
23.543507 18.635069 -0.188829
24.009758 16.206390 -2.011233
24.133442 18.333647 -1.823771
24.240223 21.560879 0.043942
24.385406 24.223127 0.370792
24.199017 20.667776 -1.633657
24.338717 23.228251 -1.505929
24.094124 13.134104 2.005280
24.682053 15.326161 2.437179
24.653658 12.855851 0.611477
23.936630 14.208194 0.838985
25.385344 17.867262 2.824626
24.142042 19.078558 3.090451
24.061972 16.200560 1.120059
23.438841 17.753452 1.414432
4.399874 2.399369 -1.887559
4.349266 2.675486 -1.900042
8.260147 7.134130 -2.028307
8.331044 7.990891 -2.046198
4.222707 3.016896 -1.885234
4.181847 3.332635 -1.886843
3.717462 2.532809 -1.876479
3.660005 2.787685 -1.880383
4.090113 3.733284 -1.904696
4.009397 4.052512 -1.898402
3.541802 3.103580 -1.880255
3.498935 3.408858 -1.888980
6.220368 3.414590 -1.919961
6.270704 3.873408 -1.929136
5.255688 2.722419 -1.892079
5.191452 3.050130 -1.899846
6.130023 4.361266 -1.920788
6.168553 4.902427 -1.939706
5.088850 3.458289 -1.895587
5.080269 3.867908 -1.909259
6.110630 5.517411 -1.947315
6.107559 6.120800 -1.962129
4.994723 4.338636 -1.919006
4.920666 4.743033 -1.916217
10.443728 5.727274 -2.009687
10.773201 6.704244 -2.032099
7.987922 4.171032 -1.956607
8.044185 4.760579 -1.961501
10.916739 7.743517 -2.056366
11.303395 8.931395 -2.072325
8.058397 5.465819 -1.976735
8.171296 6.212520 -1.998477
13.738159 7.475474 -2.058861
14.138039 8.738566 -2.096991
24.142017 20.509554 1.747187
24.932371 23.672421 2.173547
14.602265 10.256652 -2.133302
15.173228 11.926629 -2.128783
10.073324 6.777973 -2.026374
10.193857 7.685122 -2.033526
15.665493 13.876258 -2.139293
16.168791 15.973586 -2.156935
10.385463 8.854465 -2.053717
10.555017 10.002941 -2.075926
24.667439 13.425191 -0.941789
23.991932 14.851794 -0.671148
22.435440 11.617512 -2.184969
23.933397 14.134340 -2.136467
24.041508 16.816986 -0.448955
23.539099 18.511513 -0.187773
24.007515 16.095398 -2.006334
24.112921 18.198776 -1.817204
24.235849 21.421106 0.044424
24.368931 24.055012 0.370169
24.212025 20.547773 -1.629721
24.336260 23.080149 -1.500630
24.274000 13.133244 2.015638
24.677486 15.216059 2.432422
24.651276 12.756325 0.610776
23.927776 14.101410 0.837573
25.372709 17.739525 2.817553
24.206553 19.006321 3.091012
24.069515 16.096037 1.118419
23.430670 17.631615 1.411141
4.412283 2.388152 -1.889841
4.356073 2.660836 -1.899290
8.284009 7.109421 -2.028699
8.371716 7.979628 -2.050307
4.229120 3.001478 -1.883760
4.186465 3.314818 -1.883972
3.716326 2.515053 -1.871492
3.673093 2.779503 -1.882833
4.100427 3.719165 -1.903995
4.035315 4.053283 -1.905214
3.551534 3.092439 -1.880255
3.506992 3.395272 -1.887424
6.225998 3.392297 -1.918274
6.281205 3.852678 -1.928591
5.265898 2.706751 -1.892736
5.192858 3.029006 -1.896604
6.142114 4.340879 -1.920256
6.182410 4.881823 -1.939192
5.093383 3.438069 -1.893048
5.090882 3.850776 -1.908642
6.136610 5.505925 -1.950284
6.124012 6.098835 -1.961178
5.017023 4.330370 -1.922606
4.930034 4.722236 -1.913892
10.447823 5.686942 -2.006835
10.799232 6.673488 -2.033115
8.014838 4.153046 -1.960253
8.075892 4.745216 -1.965911
10.937780 7.706918 -2.055717
11.322082 8.888502 -2.070499
8.070657 5.437216 -1.975454
8.186094 6.183268 -1.997248
13.768547 7.436030 -2.060014
14.170482 8.697227 -2.097819
24.117729 20.358950 1.741540
24.643793 23.251139 2.144933
14.637670 10.212994 -2.133824
15.212181 11.880127 -2.129025
10.084743 6.739761 -2.024187
10.213226 7.649509 -2.032482
15.710502 13.828289 -2.139517
16.204712 15.908761 -2.154859
10.414733 8.823069 -2.054046
10.590695 9.973804 -2.076862
24.698933 13.341945 -0.941297
23.989107 14.745948 -0.669340
22.493086 11.557873 -2.187238
23.939880 14.036875 -2.132760
24.049856 16.710615 -0.447746
23.540442 18.393103 -0.186823
24.003153 15.983479 -2.001281
24.139656 18.100163 -1.814657
24.232349 21.282892 0.044897
24.381605 23.916672 0.369748
24.200083 20.407316 -1.623934
24.336018 22.935034 -1.495535
24.723251 13.275583 2.046059
24.657175 15.096749 2.426285
24.652071 12.658760 0.610134
23.927111 13.999879 0.836389
25.362799 17.614315 2.810816
24.212797 18.888494 3.084654
24.093302 16.002674 1.117409
23.397972 17.492037 1.406616
4.416495 2.372546 -1.888320
4.350193 2.638416 -1.892522
8.294337 7.073210 -2.025568
8.381085 7.938392 -2.046198
4.233953 2.984987 -1.881550
4.204165 3.307457 -1.887561
3.728755 2.506385 -1.873985
3.690525 2.774583 -1.887732
4.106501 3.701276 -1.901190
4.029480 4.021904 -1.895677
3.557053 3.077692 -1.877854
3.504432 3.371395 -1.879643
6.238315 3.373628 -1.918836
6.298196 3.835948 -1.930226
5.284495 2.695302 -1.896675
5.200715 3.011722 -1.895955
6.158884 4.323768 -1.921321
6.196199 4.861179 -1.938678
5.102578 3.421002 -1.892413
5.112051 3.841659 -1.912345
6.146624 5.480195 -1.947809
6.148648 6.085049 -1.963080
5.030601 4.314588 -1.922606
4.950368 4.712025 -1.916217
10.488173 5.666203 -2.011469
10.823500 6.641599 -2.033792
8.003563 4.115450 -1.953872
8.078983 4.712910 -1.962824
10.961937 7.672520 -2.055717
11.357731 8.858984 -2.072020
8.099084 5.419411 -1.978443
8.202353 6.155164 -1.996428
13.786604 7.389937 -2.059149
14.165627 8.633025 -2.092576
24.097338 20.212534 1.736185
24.341185 22.820959 2.115403
14.677842 10.172588 -2.135131
15.218095 11.807892 -2.124199
10.109150 6.710210 -2.024916
10.245097 7.623277 -2.034222
15.741888 13.768407 -2.137728
16.261726 15.864723 -2.155897
10.448450 8.795373 -2.055362
10.624859 9.943185 -2.077486
24.696678 13.240713 -0.939249
23.982454 14.638170 -0.667407
22.513315 11.479021 -2.185537
23.932220 13.931461 -2.127706
24.054487 16.602076 -0.446447
23.530233 18.266256 -0.185688
24.006653 15.877224 -1.996995
24.111645 17.960976 -1.807553
24.226715 21.143587 0.045379
24.353588 23.739353 0.369059
24.213541 20.288906 -1.620115
24.335114 22.790134 -1.490439
24.745459 13.187532 2.044617
24.648287 14.984966 2.421221
24.645370 12.557682 0.609375
23.924320 13.897471 0.835159
25.340870 17.481417 2.802900
24.204390 18.759819 3.076613
24.105062 15.901613 1.115958
23.411131 17.387421 1.404477
4.427201 2.360381 -1.889841
4.363209 2.627627 -1.894778
8.307524 7.039528 -2.023220
8.414550 7.920120 -2.048439
4.246367 2.973787 -1.883024
4.210140 3.290761 -1.885408
3.735092 2.493655 -1.873154
3.689028 2.755269 -1.882016
4.125116 3.694571 -1.904696
4.058044 4.025187 -1.903851
3.575084 3.073624 -1.882656
3.542830 3.387253 -1.895983
6.245495 3.352209 -1.917712
6.308573 3.815139 -1.929681
5.287870 2.676148 -1.894705
5.216696 2.999167 -1.898549
6.164513 4.298910 -1.918658
6.203839 4.835720 -1.936107
5.119634 3.409132 -1.894952
5.111937 3.816424 -1.907408
6.166720 5.463417 -1.948799
6.155307 6.053403 -1.958801
5.041218 4.296298 -1.921406
4.966532 4.697767 -1.916798
10.500712 5.630444 -2.010400
10.834225 6.601385 -2.031761
8.037299 4.100844 -1.959341
8.102177 4.692413 -1.965029
10.982744 7.635793 -2.055067
11.373026 8.813547 -2.069586
8.104660 5.386398 -1.975454
8.224783 6.131711 -1.997248
13.808002 7.345666 -2.058861
14.199450 8.592595 -2.093680
24.090078 20.077965 1.731707
24.344143 22.680359 2.110024
14.699916 10.119698 -2.133563
15.262966 11.766098 -2.125405
10.133468 6.680578 -2.025645
10.259507 7.584012 -2.032134
15.768544 13.704568 -2.135267
16.294365 15.796925 -2.153406
10.463903 8.752404 -2.052731
10.653154 9.907063 -2.076862
24.697557 13.141513 -0.937365
23.977062 14.531630 -0.665537
22.629255 11.448606 -2.194045
23.768925 13.736357 -2.107488
24.040516 16.481264 -0.444655
23.538441 18.154348 -0.184869
24.001377 15.765654 -1.991943
24.119858 17.849491 -1.803532
24.231026 21.013708 0.045791
24.360580 23.597281 0.368608
24.228027 20.171902 -1.616411
24.334991 22.646841 -1.485446
24.751463 13.091104 2.041994
24.628698 14.867214 2.415237
24.638275 12.456784 0.608616
23.888229 13.776225 0.833064
25.324930 17.353348 2.795658
24.198559 18.633823 3.068946
24.106377 15.794086 1.114128
23.570087 17.391003 1.409825
4.434595 2.346462 -1.889841
4.379370 2.618704 -1.898538
8.338616 7.020955 -2.025568
8.429366 7.884229 -2.045824
4.254157 2.959379 -1.882287
4.218988 3.276368 -1.884690
3.747473 2.484900 -1.875647
3.693285 2.740378 -1.879566
4.133892 3.679117 -1.903293
4.066670 4.008441 -1.901808
3.579121 3.057647 -1.879455
3.554782 3.377383 -1.896762
6.255995 3.332573 -1.917712
6.327112 3.799289 -1.931860
5.286098 2.654482 -1.890766
5.212979 2.975206 -1.893361
6.184341 4.283893 -1.920788
6.232718 4.826905 -1.940734
5.127145 3.390952 -1.893683
5.126947 3.802626 -1.908642
6.185312 5.445294 -1.949294
6.170136 6.029952 -1.957375
5.054690 4.280440 -1.921406
4.986824 4.687406 -1.919124
10.499217 5.587302 -2.006479
10.853225 6.566293 -2.031422
8.029263 4.065081 -1.953872
8.099994 4.657168 -1.960618
11.011555 7.604610 -2.056041
11.405349 8.781402 -2.070499
8.121542 5.360912 -1.975454
8.251856 6.111689 -1.999297
13.815244 7.293962 -2.056266
14.209409 8.537717 -2.090920
24.080671 19.942362 1.727131
24.352310 22.545391 2.105102
14.716887 10.063417 -2.131212
15.303001 11.720511 -2.125888
10.139577 6.639048 -2.022365
10.286450 7.554083 -2.032830
15.810011 13.653666 -2.135044
16.342478 15.744280 -2.153198
10.501984 8.728297 -2.055033
10.684223 9.873549 -2.076862
24.696287 13.041509 -0.935398
23.972948 14.426299 -0.663729
22.677568 11.383702 -2.195369
23.917343 13.722216 -2.117765
24.029333 16.362951 -0.442953
23.543009 18.040129 -0.183998
23.997307 15.655358 -1.987043
24.116362 17.729845 -1.798573
24.193821 20.848783 0.046474
24.342438 23.431801 0.367996
24.220455 20.037203 -1.611087
24.321020 22.491558 -1.479536
24.753571 12.992915 2.039109
24.612030 14.751782 2.409560
24.593231 12.337258 0.607243
23.908838 13.688176 0.832472
25.316675 17.231146 2.789258
24.190596 18.506842 3.061092
24.110609 15.688883 1.112424
23.664869 17.346443 1.411882
4.427164 2.324856 -1.882997
4.379632 2.600162 -1.894778
8.360631 6.994725 -2.025568
8.455528 7.859051 -2.046198
4.269572 2.950198 -1.885234
4.230732 3.264245 -1.885408
3.749161 2.469148 -1.872323
3.703339 2.729854 -1.880383
4.138384 3.659941 -1.899788
4.071217 3.987715 -1.897721
3.597132 3.053459 -1.884257
3.558710 3.359840 -1.892871
6.269833 3.314685 -1.918836
6.317575 3.766507 -1.924777
5.299495 2.640368 -1.892736
5.225584 2.960695 -1.894658
6.192992 4.261182 -1.919191
6.243266 4.803750 -1.939192
5.134593 3.372760 -1.892413
5.140395 3.787636 -1.909259
6.203849 5.427108 -1.949789
6.195997 6.017327 -1.959752
5.069577 4.265763 -1.922006
5.002918 4.673029 -1.919705
10.523685 5.557952 -2.007904
10.861985 6.525037 -2.029053
8.055936 4.046791 -1.957518
8.119658 4.634615 -1.961942
11.030499 7.566641 -2.055067
11.428175 8.741918 -2.069586
8.139978 5.336439 -1.975881
8.264718 6.081078 -1.997658
13.846862 7.255105 -2.057708
14.241260 8.496090 -2.091748
24.069109 19.805752 1.722458
24.356936 22.407892 2.099952
14.740217 10.011579 -2.129905
15.322382 11.659132 -2.123234
10.158731 6.606095 -2.022000
10.305365 7.518240 -2.031786
15.864904 13.614272 -2.136833
16.374632 15.676336 -2.150707
10.514114 8.682730 -2.051744
10.713735 9.838597 -2.076550
24.698175 12.943492 -0.933596
23.978701 14.327300 -0.662295
22.709652 11.310636 -2.194991
23.915333 13.621329 -2.113384
24.029240 16.252705 -0.441565
23.566170 17.940615 -0.183444
23.991108 15.544167 -1.981991
24.099466 17.600975 -1.792542
23.714962 20.307430 0.050072
24.333607 23.276352 0.367450
24.219999 19.909088 -1.606341
24.321014 22.350119 -1.474644
24.749996 12.892084 2.035831
24.591454 14.634561 2.403576
24.639032 12.263498 0.607360
23.885700 13.575395 0.830742
25.294687 17.100254 2.781511
24.185244 18.382509 3.053612
24.058977 15.548057 1.108638
23.648212 17.220198 1.408261
4.432801 2.310091 -1.882236
4.392553 2.589239 -1.897034
8.375007 6.962176 -2.023611
8.465771 7.819086 -2.042462
4.272666 2.932593 -1.882287
4.243917 3.253225 -1.886843
3.753842 2.455384 -1.870661
3.708963 2.716033 -1.878750
4.159750 3.655531 -1.904696
4.089090 3.980177 -1.900446
3.599669 3.036274 -1.880255
3.563899 3.343573 -1.889759
6.297244 3.303828 -1.924459
6.340943 3.753545 -1.928591
5.316249 2.627856 -1.896018
5.228278 2.940526 -1.892063
6.207942 4.242788 -1.919723
6.264452 4.788829 -1.941248
5.148348 3.358673 -1.893683
5.146146 3.766950 -1.906791
6.216467 5.403792 -1.948304
6.213475 5.996480 -1.959277
5.077078 4.244944 -1.919606
5.011982 4.652061 -1.917379
10.546329 5.527596 -2.008974
10.882429 6.490883 -2.029053
8.068608 4.021464 -1.957518
8.122314 4.602320 -1.958854
11.047684 7.527521 -2.053768
11.465010 8.713167 -2.071412
8.155063 5.309780 -1.975454
8.282204 6.053927 -1.997248
13.873106 7.213378 -2.058284
14.259371 8.446238 -2.090368
24.064680 19.675705 1.718271
24.359488 22.269218 2.094687
14.755152 9.954144 -2.127293
15.366854 11.616922 -2.124440
10.176131 6.572013 -2.021272
10.330531 7.486979 -2.032134
15.897010 13.555340 -2.135267
16.413734 15.615194 -2.149253
10.547457 8.654642 -2.053059
10.744598 9.804885 -2.076550
24.680193 12.835444 -0.930892
23.972057 14.221234 -0.660424
22.746868 11.240100 -2.195180
23.906002 13.516638 -2.108330
24.025389 16.140369 -0.440087
23.687778 17.915989 -0.184526
23.994534 15.439608 -1.977858
24.106237 17.489964 -1.788521
23.632332 20.108511 0.051036
24.332754 23.129440 0.366962
24.211258 19.774843 -1.601017
24.324799 22.212919 -1.470059
24.751364 12.794124 2.032947
24.575548 14.520641 2.398052
24.629011 12.162152 0.606572
23.952610 13.514050 0.831379
25.282082 16.976303 2.774774
24.201599 18.275185 3.048750
24.035336 15.426017 1.105925
23.652048 17.109449 1.405711
4.449923 2.301198 -1.886799
4.403857 2.577312 -1.898538
8.401389 6.939560 -2.024786
8.488854 7.791113 -2.042088
4.280318 2.918113 -1.881550
4.248201 3.235320 -1.883972
3.766133 2.446523 -1.873154
3.721890 2.707612 -1.881200
4.166967 3.638766 -1.902592
4.105614 3.971249 -1.902489
3.607781 3.023778 -1.879455
3.578411 3.336148 -1.892093
6.282010 3.270822 -1.916025
6.347740 3.730659 -1.926956
5.315981 2.607015 -1.892736
5.249029 2.930588 -1.896604
6.222842 4.224337 -1.920256
6.277935 4.767947 -1.940734
5.155685 3.340430 -1.892413
5.159492 3.751886 -1.907408
6.227535 5.379182 -1.946325
6.141413 5.889248 -1.928377
5.091864 4.230183 -1.920206
5.025173 4.634986 -1.916798
10.567142 5.496237 -2.009687
10.902773 6.456656 -2.029053
8.067220 3.989224 -1.953872
8.141830 4.579659 -1.960177
11.072921 7.493872 -2.054092
11.484456 8.671128 -2.069890
8.174994 5.286241 -1.976308
8.298025 6.025564 -1.996428
13.883375 7.163430 -2.056266
14.267070 8.390326 -2.087332
24.045692 19.534578 1.713208
24.351051 22.121367 2.088620
14.769859 9.896730 -2.124680
15.403273 11.568593 -2.124440
10.190096 6.535780 -2.019814
10.353998 7.454490 -2.032134
15.922817 13.491221 -2.132807
16.469925 15.570395 -2.150291
10.569998 8.617734 -2.052073
10.775346 9.771082 -2.076550
24.661762 12.727662 -0.928188
23.970133 14.118421 -0.658741
22.828569 11.191325 -2.200096
24.002192 13.471760 -2.113553
24.017725 16.026026 -0.438519
23.740747 17.839081 -0.184473
23.990793 15.330913 -1.973112
24.112524 17.379101 -1.784500
23.649532 19.995472 0.051338
24.352991 23.003407 0.366617
24.204998 19.643385 -1.595925
24.320551 22.069225 -1.464964
24.702602 12.670847 2.026390
24.574625 14.416080 2.393909
24.638348 12.070672 0.606105
24.031557 13.459290 0.832336
25.285517 16.863668 2.769722
24.354399 18.270845 3.059970
23.940308 15.259237 1.100561
23.657028 17.000034 1.403242
4.453830 2.285535 -1.885278
4.413529 2.564404 -1.899290
8.421628 6.911893 -2.024394
8.514737 7.765735 -2.042462
4.289464 2.904652 -1.881550
4.267242 3.228760 -1.888279
3.773800 2.434680 -1.873154
3.721535 2.689440 -1.876300
4.174115 3.621995 -1.900489
4.109971 3.950476 -1.898402
3.615847 3.011265 -1.878655
3.587528 3.323631 -1.891315
6.309337 3.259818 -1.921648
6.356110 3.708747 -1.925867
5.322442 2.589483 -1.892079
5.249954 2.909463 -1.893361
6.231276 4.201551 -1.918658
6.295959 4.750540 -1.941762
5.166153 3.324217 -1.892413
5.169714 3.734539 -1.906791
6.265045 5.377197 -1.953252
6.229998 5.937151 -1.952146
5.108079 4.216584 -1.921406
5.048144 4.626967 -1.920286
10.575602 5.458519 -2.007904
10.929790 6.426383 -2.030407
8.088467 3.968125 -1.956151
8.156176 4.554059 -1.960177
11.091486 7.455756 -2.053118
11.506902 8.631439 -2.068977
8.193208 5.261586 -1.976735
8.320082 6.001765 -1.997248
13.885801 7.137105 -2.054825
14.278523 8.366902 -2.087056
24.014204 19.446552 1.709314
24.320688 22.024063 2.083584
14.778783 9.869123 -2.123635
15.419838 11.543194 -2.124199
10.200350 6.519766 -2.019814
10.362500 7.435914 -2.031438
15.957669 13.477720 -2.134820
16.485685 15.536312 -2.149046
10.597322 8.612292 -2.055033
10.787754 9.751490 -2.075926
24.649719 12.672495 -0.926713
23.954370 14.058459 -0.657369
22.894449 11.178992 -2.205201
24.145016 13.502245 -2.125347
23.999554 15.959535 -0.437355
23.773539 17.805374 -0.184552
23.966036 15.262195 -1.968672
24.065289 17.287586 -1.778334
23.589090 19.881048 0.051941
24.327986 22.907497 0.366215
24.170580 19.552652 -1.591064
24.276733 21.959919 -1.459563
24.674467 12.607556 2.022850
24.518089 14.331100 2.386851
24.606934 12.007450 0.605287
24.276047 13.546449 0.838165
25.235586 16.773251 2.761975
24.478689 18.304195 3.071190
24.099318 15.307236 1.105609
23.665840 16.950041 1.402337
4.462369 2.281037 -1.887559
4.401561 2.548102 -1.891770
8.424870 6.892466 -2.022437
8.526924 7.752351 -2.042462
4.290928 2.895846 -1.880077
4.270823 3.220922 -1.887561
3.782227 2.431674 -1.875647
3.733132 2.688968 -1.880383
4.182644 3.617872 -1.901891
4.129689 3.957087 -1.905214
3.629073 3.012558 -1.883457
3.594092 3.319249 -1.892093
6.305901 3.245544 -1.918836
6.360268 3.697786 -1.925322
5.336725 2.586019 -1.896018
5.249561 2.898448 -1.891415
6.244284 4.196038 -1.920788
6.303413 4.740645 -1.941762
5.177773 3.320167 -1.894952
5.181732 3.730885 -1.909259
6.254291 5.351034 -1.946820
6.254765 5.942122 -1.957375
5.110262 4.204935 -1.919606
5.051182 4.615144 -1.918542
10.577155 5.438319 -2.006479
10.924582 6.400208 -2.027360
8.089433 3.952866 -1.954783
8.171830 4.546007 -1.962382
11.090051 7.429564 -2.050520
11.523607 8.615730 -2.069586
8.189921 5.241367 -1.973746
8.318393 5.980662 -1.994379
13.906390 7.092553 -2.054536
14.309870 8.325002 -2.087884
23.989519 19.302217 1.703959
24.314114 21.879379 2.077747
14.796482 9.813900 -2.121545
15.443290 11.485201 -2.122268
10.217455 6.485591 -2.019085
10.385807 7.403325 -2.031438
15.984688 13.414765 -2.132583
16.528608 15.479002 -2.148215
10.613564 8.570305 -2.052731
10.808063 9.708294 -2.073742
24.646664 12.573244 -0.924747
23.946627 13.952900 -0.655499
23.010130 11.145993 -2.213710
24.314444 13.497058 -2.137646
23.994478 15.847749 -0.435877
23.826149 17.728210 -0.184500
23.954844 15.149580 -1.963313
24.061037 17.170122 -1.773509
23.582378 19.749121 0.052393
24.373556 22.806343 0.366042
24.152460 19.412899 -1.585161
24.271378 21.816727 -1.454468
24.694361 12.520076 2.021408
24.512997 14.224940 2.382401
24.606714 11.911829 0.604674
24.440853 13.538054 0.841353
25.218260 16.647842 2.754901
24.625523 18.293783 3.081662
24.113449 15.210157 1.104347
23.808466 16.939409 1.406863
4.466204 2.265351 -1.886038
4.423962 2.542647 -1.898538
8.444955 6.864732 -2.022046
8.552689 7.726847 -2.042835
4.303103 2.884407 -1.881550
4.276454 3.204110 -1.885408
3.785230 2.416870 -1.873154
3.735646 2.672945 -1.877117
4.192563 3.603500 -1.901190
4.138031 3.940186 -1.903170
3.632837 2.996510 -1.880255
3.600449 3.304183 -1.889759
6.324627 3.230052 -1.921648
6.373516 3.678756 -1.925867
5.327761 2.561131 -1.889453
5.256985 2.881027 -1.890766
6.252612 4.173207 -1.919191
6.309007 4.713848 -1.938678
5.180156 3.298825 -1.891779
5.190341 3.712363 -1.908025
6.272550 5.332611 -1.947315
6.267766 5.917094 -1.955474
5.123447 4.188861 -1.919606
5.064243 4.597961 -1.917961
10.590675 5.403283 -2.005766
10.934423 6.359891 -2.025329
8.096547 3.924901 -1.953416
8.175839 4.514627 -1.959736
11.126496 7.403409 -2.053118
11.547445 8.577124 -2.068977
8.209651 5.217701 -1.974600
8.340319 5.956784 -1.995199
13.937439 7.053287 -2.055978
14.332524 8.278022 -2.087332
23.982897 19.173180 1.699773
24.317280 21.744278 2.072711
14.812322 9.757576 -2.119194
15.455365 11.418902 -2.118649
10.229449 6.448236 -2.017263
10.410618 7.371804 -2.031786
16.043558 13.378468 -2.135044
16.572788 15.422931 -2.147593
10.651222 8.545542 -2.055033
10.835565 9.671658 -2.073118
24.645014 12.475038 -0.922862
23.941916 13.849532 -0.653753
23.073761 11.087423 -2.216735
24.485825 13.491899 -2.150114
23.983923 15.732866 -0.434264
23.892971 17.661608 -0.184684
23.968523 15.053075 -1.960251
24.082317 17.071342 -1.770829
23.582767 19.623823 0.052795
24.477282 22.759649 0.366253
24.147753 19.284658 -1.580300
24.272806 21.680443 -1.449882
24.664009 12.407526 2.016294
24.485031 14.105990 2.375957
24.597124 11.812007 0.603915
24.588337 13.519107 0.844085
25.210402 16.529253 2.748838
24.782143 18.289730 3.093256
24.120428 15.108902 1.102833
23.959417 16.933825 1.411799
4.484895 2.257071 -1.891361
4.422298 2.523177 -1.894026
8.463421 6.835712 -2.021263
8.575461 7.698626 -2.042462
4.307485 2.867808 -1.879340
4.282024 3.187295 -1.883254
3.791262 2.404002 -1.872323
3.754399 2.668659 -1.882833
4.215303 3.599990 -1.906799
4.138149 3.915479 -1.897040
3.640808 2.983929 -1.879455
3.618939 3.300349 -1.894427
6.319307 3.202416 -1.916587
6.386707 3.659678 -1.926412
5.337489 2.545187 -1.890110
5.269325 2.866321 -1.892063
6.257638 4.148246 -1.916528
6.328429 4.697478 -1.940220
5.195314 3.285556 -1.893683
5.214348 3.704905 -1.912963
6.296692 5.319109 -1.949789
6.300452 5.910710 -1.960227
5.138066 4.173944 -1.920206
5.065918 4.570445 -1.912729
10.597052 5.364677 -2.003627
10.949234 6.322544 -2.024314
8.098291 3.894414 -1.950681
8.184857 4.486094 -1.958413
11.138159 7.360826 -2.050845
11.563214 8.532571 -2.066847
8.222690 5.189810 -1.973746
8.354210 5.927145 -1.993970
13.948911 7.004151 -2.054248
14.348159 8.227021 -2.085676
23.978844 19.046846 1.695781
24.309408 21.600067 2.066874
14.837923 9.707739 -2.118410
15.491167 11.370287 -2.118649
10.251328 6.417105 -2.017627
10.428903 7.335649 -2.030742
16.051811 13.300140 -2.130123
16.613873 15.364025 -2.146554
10.662569 8.499767 -2.051744
10.865898 9.637566 -2.073118
24.644781 12.377851 -0.921060
23.896952 13.723388 -0.650573
23.135454 11.027699 -2.219572
24.589256 13.448429 -2.156011
23.989649 15.629097 -0.433100
23.956400 17.592377 -0.184816
23.961521 14.943976 -1.955352
24.064089 16.944981 -1.764931
23.571812 19.489798 0.053267
24.547203 22.681274 0.366243
24.131533 19.147945 -1.574628
24.264673 21.536396 -1.444685
24.686792 12.321968 2.015114
24.470406 13.995277 2.370740
24.587149 11.712351 0.603156
24.651739 13.453301 0.844632
25.193699 16.405436 2.741933
24.926147 18.275427 3.103354
24.118526 15.002469 1.101003
24.014135 16.859612 1.411882
4.455462 2.224977 -1.874632
4.433420 2.511114 -1.895530
8.489453 6.812759 -2.022437
8.599608 7.671646 -2.042462
4.314918 2.853242 -1.878604
4.289025 3.171591 -1.881819
3.798797 2.392079 -1.872323
3.749397 2.647297 -1.875484
4.219423 3.580702 -1.903293
4.151795 3.903753 -1.897721
3.648738 2.971326 -1.878655
3.610269 3.271540 -1.883533
6.324183 3.179978 -1.914901
6.389827 3.634807 -1.923687
5.343748 2.527605 -1.889453
5.279967 2.850657 -1.892712
6.275483 4.131729 -1.918126
6.343157 4.677571 -1.940220
5.208833 3.271221 -1.894952
5.213564 3.679678 -1.908025
6.302955 5.290611 -1.946325
6.316157 5.888227 -1.959277
5.149665 4.156587 -1.919606
5.080254 4.554505 -1.912729
10.617375 5.333116 -2.004340
10.967336 6.287127 -2.023975
8.110487 3.868952 -1.950681
8.202333 4.462230 -1.959295
11.166186 7.329033 -2.051819
11.589965 8.496198 -2.066847
8.235639 5.161882 -1.972892
8.371194 5.899735 -1.993560
13.977937 6.963809 -2.055401
14.373936 8.181902 -2.085676
23.950693 18.902185 1.690329
24.306852 21.461412 2.061494
14.866685 9.659993 -2.118148
15.518800 11.315699 -2.117442
10.268094 6.382796 -2.016898
10.453509 7.303978 -2.031090
16.099661 13.254685 -2.131017
16.660595 15.310404 -2.146347
10.687673 8.465003 -2.051415
10.890204 9.598144 -2.071870
24.649551 12.283458 -0.919503
23.922588 13.638319 -0.649950
23.209604 10.973637 -2.223732
24.592873 13.350153 -2.152304
23.983202 15.517851 -0.431622
23.997021 17.506401 -0.184579
23.965946 14.842408 -1.951525
24.068184 16.834934 -1.760910
23.564884 19.359837 0.053709
24.503513 22.498442 0.365497
24.133522 19.026344 -1.570346
24.254375 21.391287 -1.439386
24.666340 12.215175 2.010787
24.457060 13.885782 2.365676
24.578604 11.613728 0.602426
24.667528 13.361473 0.843948
25.181490 16.285130 2.735533
25.078348 18.266270 3.114388
24.112791 14.894099 1.099047
24.044054 16.768057 1.410730
4.467415 2.213406 -1.876913
4.436455 2.494423 -1.893274
8.500061 6.777519 -2.019698
8.628069 7.648506 -2.043582
4.325420 2.840684 -1.879340
4.304965 3.162550 -1.884690
3.803197 2.378220 -1.870661
3.762161 2.638674 -1.877933
4.226339 3.563825 -1.901190
4.172247 3.898429 -1.901808
3.656624 2.958702 -1.877854
3.636880 3.275063 -1.892871
6.337584 3.161794 -1.916025
6.409577 3.619474 -1.926412
5.363659 2.516367 -1.894049
5.285569 2.832252 -1.891415
6.290050 4.113041 -1.918658
6.348489 4.650734 -1.937136
5.215858 3.252845 -1.893683
5.229759 3.666574 -1.909877
6.329991 5.279437 -1.949789
6.333204 5.867029 -1.958801
5.162699 4.140387 -1.919606
5.090266 4.534687 -1.910985
10.627026 5.296234 -2.002914
10.981901 6.249702 -2.022960
8.126127 3.845105 -1.951592
8.219741 4.438302 -1.960177
11.182535 7.289617 -2.050520
11.616602 8.459742 -2.066847
8.245170 5.131869 -1.971184
8.392890 5.875659 -1.994379
13.987315 6.913746 -2.053383
14.415078 8.145501 -2.088160
23.931303 18.765287 1.685461
24.300659 21.320366 2.055886
14.883617 9.604662 -2.116058
15.536600 11.254058 -2.114788
10.284743 6.348449 -2.016170
10.482867 7.275609 -2.032482
16.142759 13.205302 -2.131241
16.720350 15.268734 -2.148008
10.718870 8.435039 -2.052402
10.918819 9.562582 -2.071558
24.648590 12.186515 -0.917700
23.909676 13.531543 -0.647955
23.271017 10.913325 -2.226568
24.597866 13.252944 -2.148766
23.981340 15.410052 -0.430278
24.043808 17.425055 -0.184447
23.954670 14.731585 -1.946320
24.061991 16.718201 -1.756085
23.572874 19.242758 0.054051
24.513538 22.366037 0.365104
24.130257 18.901241 -1.565716
24.262913 21.263599 -1.435412
27.464298 13.490265 2.212718
24.453678 13.782405 2.361534
24.585981 11.522909 0.601959
24.667131 13.261152 0.842856
25.160379 16.159697 2.728291
25.238789 18.262192 3.126356
24.103199 14.783841 1.096964
24.050644 16.660538 1.408426
4.482668 2.203397 -1.880715
4.452337 2.485031 -1.897034
8.513609 6.744711 -2.017741
8.641754 7.612251 -2.040967
4.337447 2.829098 -1.880814
4.314878 3.149010 -1.884690
3.821507 2.372916 -1.876479
3.773416 2.628947 -1.879566
4.237514 3.550531 -1.901190
4.176240 3.877589 -1.897721
3.670205 2.950622 -1.880255
3.647151 3.263622 -1.892871
6.350932 3.143559 -1.917150
6.425941 3.602162 -1.928046
5.359524 2.493979 -1.889453
5.297774 2.817426 -1.892712
6.299699 4.091173 -1.917593
6.361508 4.629626 -1.936622
5.227667 3.237436 -1.894318
5.247478 3.654502 -1.912345
6.343552 5.257062 -1.948799
6.353029 5.848424 -1.959277
5.180171 4.127698 -1.921406
5.117339 4.530138 -1.916217
10.641845 5.261955 -2.002558
11.013479 6.221984 -2.025329
8.136401 3.818737 -1.951137
8.223343 4.406901 -1.957531
11.207039 7.255522 -2.050845
11.641521 8.422045 -2.066543
8.261251 5.105943 -1.971184
8.400076 5.841412 -1.991511
14.000072 6.865430 -2.051942
14.416429 8.086572 -2.084296
23.911289 18.628698 1.680593
24.298330 21.183506 2.050621
14.905361 9.552522 -2.114752
15.587977 11.216813 -2.117201
10.292884 6.308940 -2.013618
10.492717 7.233672 -2.029697
16.182617 13.153273 -2.131017
16.774117 15.221485 -2.148838
10.754653 8.408597 -2.054375
10.945828 9.525634 -2.070934
24.632902 12.082674 -0.915242
24.049610 13.511291 -0.651446
23.337694 10.855251 -2.229971
24.593706 13.151131 -2.144385
23.973976 15.299196 -0.428800
24.080584 17.336569 -0.184156
23.953148 14.627206 -1.942033
24.056944 16.602806 -1.751394
23.571033 19.118273 0.054453
24.517052 22.228420 0.364673
24.131172 18.780022 -1.561434
24.261852 21.128191 -1.430826
27.607050 13.452794 2.220061
24.442938 13.675285 2.356777
24.574886 11.423744 0.601200
24.661064 13.158141 0.841626
25.150499 16.042048 2.722228
25.384907 18.246813 3.136641
24.086313 14.669632 1.094630
24.040342 16.541803 1.405299
4.482900 2.186096 -1.877674
4.458505 2.470126 -1.896282
8.520858 6.707049 -2.014219
8.665625 7.585066 -2.040967
4.346313 2.815458 -1.880814
4.326255 3.136543 -1.885408
3.819618 2.355225 -1.871492
3.772683 2.610796 -1.874667
4.254427 3.541969 -1.903995
4.206292 3.881109 -1.906576
3.682333 2.941350 -1.881856
3.642312 3.238601 -1.884312
6.365953 3.126112 -1.918836
6.433869 3.580075 -1.926956
5.367332 2.477130 -1.889453
5.303259 2.798989 -1.891415
6.310896 4.070323 -1.917061
6.386959 4.617582 -1.940220
5.242671 3.223958 -1.896222
5.246452 3.629290 -1.907408
6.364536 5.240790 -1.950284
6.381375 5.837646 -1.962604
5.196113 4.113761 -1.922606
5.132976 4.515309 -1.916798
10.656553 5.227637 -2.002201
11.026101 6.183486 -2.023975
8.143054 3.790708 -1.949769
8.242304 4.383808 -1.958854
11.216480 7.211768 -2.048246
11.661508 8.380807 -2.065325
8.280585 5.082001 -1.972038
8.437679 5.828396 -1.996428
14.037604 6.829175 -2.054536
14.438303 8.039305 -2.083744
23.901728 18.500963 1.676407
24.296902 21.048172 2.045470
14.918556 9.495023 -2.112139
15.600553 11.151587 -2.113822
10.322747 6.282683 -2.015805
10.504033 7.192857 -2.027261
16.208387 13.089897 -2.128780
16.814482 15.162041 -2.147800
10.771657 8.367522 -2.052402
10.974213 9.489902 -2.070622
24.631191 11.986022 -0.913440
24.189665 13.490280 -0.654938
23.371685 10.781873 -2.229971
24.590921 13.050401 -2.140173
23.981369 15.198148 -0.427725
24.082914 17.223555 -0.183312
23.940979 14.516774 -1.936828
24.049772 16.486471 -1.746569
23.595139 19.015287 0.054684
24.288319 21.881969 0.362748
24.123674 18.652872 -1.556573
24.257172 20.990370 -1.426037
27.764219 13.421481 2.228453
24.440477 13.573206 2.352788
24.583406 11.333944 0.600762
24.665194 13.060908 0.840670
25.136770 15.922482 2.715828
25.540907 18.237635 3.148048
23.863583 14.431726 1.084723
24.044382 16.433449 1.402913
4.486408 2.170407 -1.876153
4.461386 2.453402 -1.894026
8.552724 6.688676 -2.016959
8.690893 7.559096 -2.041341
4.355138 2.801789 -1.880814
4.322504 3.113050 -1.878947
3.833227 2.346976 -1.874816
3.782367 2.599972 -1.875484
4.261189 3.525023 -1.901891
4.211565 3.861489 -1.903170
3.687230 2.926372 -1.879455
3.648347 3.223460 -1.881977
6.361916 3.099422 -1.914338
6.438361 3.556097 -1.924777
5.366482 2.456361 -1.886170
5.312027 2.782313 -1.891415
6.322026 4.049441 -1.916528
6.388906 4.588431 -1.936107
5.244660 3.202562 -1.893048
5.259392 3.613872 -1.908025
6.376458 5.217101 -1.948799
6.399685 5.817568 -1.962604
5.201491 4.091547 -1.919606
5.141393 4.494101 -1.914473
10.674697 5.194987 -2.002558
11.050636 6.151699 -2.024991
8.151383 3.763483 -1.948858
8.254314 4.356974 -1.958413
11.247411 7.181785 -2.049870
11.679748 8.338370 -2.063804
8.296512 5.055959 -1.972038
8.457561 5.802968 -1.996838
14.058989 6.785043 -2.054536
14.465220 7.994871 -2.084020
23.877331 18.362534 1.671344
24.285778 20.905247 2.039633
14.949989 9.449167 -2.112401
15.617718 11.089857 -2.111168
10.323895 6.239076 -2.011796
10.534709 7.165380 -2.029001
16.249428 13.038916 -2.128780
16.872387 15.118450 -2.149253
10.807274 8.340857 -2.054375
11.002474 9.454091 -2.070310
24.630915 11.890377 -0.911719
24.361275 13.485988 -0.659552
23.405439 10.708401 -2.229971
24.582447 12.947036 -2.135456
23.983276 15.094022 -0.426516
24.068474 17.099110 -0.182203
23.950567 14.419928 -1.933612
24.053640 16.378225 -1.742682
23.565716 18.869894 0.055257
24.270576 21.728123 0.362193
24.123528 18.532043 -1.552290
24.102028 20.723757 -1.411159
27.919659 13.388466 2.236714
24.404451 13.452968 2.345883
24.586138 11.241725 0.600236
24.649488 12.953544 0.839212
25.125902 15.805291 2.709764
25.695463 18.226511 3.159268
23.943090 14.377239 1.085985
24.051275 16.327490 1.400692
4.494876 2.157094 -1.876913
4.462583 2.435790 -1.891018
8.559729 6.650979 -2.013437
8.720531 7.536910 -2.042835
4.365489 2.789087 -1.881550
4.339826 3.104924 -1.882536
3.837461 2.333050 -1.873154
3.796523 2.592230 -1.878750
4.269336 3.509254 -1.900489
4.226442 3.850785 -1.904533
3.692068 2.911393 -1.877054
3.665345 3.218097 -1.885868
6.376814 3.081908 -1.916025
6.441080 3.531199 -1.922053
5.375896 2.440264 -1.886827
5.329116 2.770011 -1.894658
6.344497 4.035735 -1.919723
6.411137 4.573977 -1.938678
5.267702 3.193883 -1.898126
5.270719 3.597332 -1.908025
6.401862 5.204350 -1.951768
6.416492 5.796130 -1.962129
5.214319 4.075186 -1.919606
5.169886 4.490531 -1.920286
10.692739 5.162280 -2.002914
11.057844 6.110256 -2.022621
8.179123 3.745108 -1.952960
8.261059 4.327383 -1.956649
11.266578 7.144310 -2.049221
11.710715 8.305077 -2.064717
8.310679 5.028865 -1.971611
8.449912 5.758667 -1.990281
14.064157 6.733181 -2.051942
14.493734 7.951301 -2.084572
23.876125 18.242611 1.667742
24.286129 20.772991 2.034711
14.961107 9.390589 -2.109527
15.652478 11.040741 -2.111168
10.346820 6.208631 -2.012525
10.552277 7.128933 -2.027957
16.287197 12.985331 -2.128333
16.907925 15.054776 -2.147593
10.825583 8.300879 -2.052731
11.021619 9.410483 -2.068126
24.635691 11.797440 -0.910245
24.520842 13.474003 -0.663729
23.415380 10.624149 -2.227513
24.580629 12.847554 -2.131412
23.972893 14.982632 -0.424993
24.074718 16.989939 -0.181437
23.937519 14.309884 -1.928407
24.053762 16.267883 -1.738527
23.557529 18.742289 0.055689
24.262560 21.583918 0.361705
24.124449 18.412607 -1.548124
23.616140 20.176506 -1.374168
25.881018 12.313157 2.085396
24.383650 13.341722 2.340359
24.581247 11.146305 0.599594
24.636902 12.848262 0.837846
25.106091 15.683056 2.702859
25.705414 18.112402 3.153845
23.948626 14.278445 1.084533
24.039528 16.209347 1.397565
4.491584 2.138245 -1.872350
4.468587 2.420868 -1.890266
8.586802 6.628836 -2.015002
8.723337 7.491509 -2.037606
4.367930 2.771406 -1.878604
4.343493 3.086920 -1.879665
3.841645 2.319122 -1.871492
3.801637 2.578224 -1.877117
4.278882 3.494648 -1.899788
4.226024 3.826074 -1.898402
3.699747 2.898659 -1.876254
3.675436 3.206568 -1.885868
6.379529 3.058566 -1.913776
6.458889 3.514651 -1.924232
5.374905 2.419525 -1.883544
5.327725 2.748009 -1.890766
6.350610 4.011690 -1.917593
6.425474 4.553814 -1.938678
5.264678 3.169548 -1.893048
5.277282 3.577536 -1.906173
6.407600 5.175723 -1.948304
6.428901 5.770737 -1.960227
5.218025 4.051801 -1.916007
5.176747 4.467989 -1.917379
10.696465 5.122741 -2.000419
11.057994 6.065023 -2.018898
8.160664 3.705795 -1.945211
