ply
format ascii 1.0
element vertex 1603
property float x
property float y
property float z
end_header
2.040907 -12.659761 -1.804497
-3.680860 -36.584118 -1.297873
-1.888028 -43.020180 -1.134149
-2.197789 -18.183836 -1.525069
-1.352720 -20.674492 -1.538185
0.618832 -53.747784 -0.995770
5.383455 -78.505417 -0.831233
-0.176624 -23.108061 -1.561432
1.309422 -27.282860 -1.622724
2.551807 -20.173035 0.104775
3.608888 -19.842264 0.302788
0.167705 -1.350727 0.132210
3.223456 -19.983210 -0.822160
-3.703454 -35.914295 2.574490
-1.945827 -42.592731 3.482406
-4.332587 -35.584595 0.728904
-2.646184 -40.253731 1.123796
0.653574 -57.853508 5.090704
0.072294 -1.444044 0.336462
-0.460511 -48.939423 1.749300
2.945702 -62.497990 2.779910
-0.500009 -4.873152 -1.841172
-0.250253 -4.975849 -1.849658
1.102970 -9.896072 -1.837332
1.695974 -10.330826 -1.841860
0.095542 -5.064213 -1.835878
0.370319 -5.197919 -1.834443
-0.015087 -4.412770 -1.837415
0.222950 -4.525878 -1.849352
0.739218 -5.308566 -1.838091
1.033762 -5.405304 -1.826879
0.542167 -4.570853 -1.833836
0.805183 -4.674255 -1.829064
-0.670489 -6.722870 -1.820440
-0.340322 -7.017847 -1.831608
-0.706998 -5.693853 -1.829052
-0.408763 -5.781601 -1.822664
0.121345 -7.165478 -1.822287
0.522435 -7.478473 -1.837922
-0.027386 -5.964910 -1.832752
0.302566 -6.172259 -1.842604
1.041363 -7.785750 -1.850830
1.504138 -8.050931 -1.850414
0.720539 -6.305920 -1.834425
1.077598 -6.461968 -1.830180
-1.056490 -10.557490 -1.774065
-0.505886 -11.177442 -1.774500
-1.002288 -8.300638 -1.804360
-0.583463 -8.635095 -1.804920
0.183547 -11.756662 -1.788749
0.839255 -12.539736 -1.789322
-0.048855 -9.031710 -1.822588
0.455209 -9.433575 -1.826772
-1.370562 -13.260057 -1.722436
-0.673826 -13.940132 -1.725792
0.172962 -1.437469 0.273862
4.252203 -26.746403 1.755207
0.162519 -14.736430 -1.723899
1.017306 -15.810260 -1.708669
-0.098213 -10.823359 -1.782204
0.502269 -11.374513 -1.789528
2.123818 -17.101406 -1.723470
3.287092 -18.328398 -1.728215
1.266325 -12.060384 -1.800140
2.002998 -12.677814 -1.806369
-3.762959 -36.258350 -1.284928
-2.002775 -42.574722 -1.120432
-2.251682 -18.151161 -1.522611
-1.417531 -20.668152 -1.538016
0.444706 -53.081657 -0.980811
5.133644 -78.474052 -0.830599
-0.249030 -23.091438 -1.560207
1.221694 -27.242985 -1.619776
2.487691 -20.174995 0.104805
3.547595 -19.859407 0.302817
3.031344 -29.570276 -1.512012
3.162233 -20.003101 -0.822670
-3.782923 -35.590939 2.553903
-2.061571 -42.211952 3.453560
-4.450095 -35.616447 0.729575
-2.746903 -39.868195 1.115189
0.466350 -57.145828 5.030747
0.067757 -1.444264 0.336462
-0.598254 -47.714447 1.710682
2.707061 -61.554680 2.740664
-0.515929 -4.877073 -1.843453
-0.265438 -4.965783 -1.845897
1.070020 -9.881933 -1.833810
1.666363 -10.353555 -1.845222
0.079651 -5.066349 -1.836615
0.353307 -5.189747 -1.830854
-0.029177 -4.430891 -1.845726
0.208163 -4.515616 -1.844453
0.721319 -5.301577 -1.834585
1.015707 -5.402986 -1.824836
0.528205 -4.576178 -1.835437
0.792713 -4.689466 -1.834511
-0.692625 -6.730272 -1.823252
-0.362644 -7.022509 -1.833242
-0.724388 -5.687858 -1.827739
-0.427317 -5.785951 -1.824610
0.098794 -7.161969 -1.821223
0.499073 -7.482007 -1.838437
-0.045851 -5.942037 -1.825135
0.283078 -6.171279 -1.841986
1.016898 -7.788984 -1.850830
1.475983 -8.040339 -1.846611
0.701131 -6.311947 -1.835625
1.056343 -6.459660 -1.828436
-1.093997 -10.595219 -1.781551
-0.540727 -11.169889 -1.773484
-1.027870 -8.293585 -1.803448
-0.610325 -8.629326 -1.804038
0.146550 -11.751259 -1.787774
0.799336 -12.534420 -1.788105
-0.077118 -9.021745 -1.820453
0.425289 -9.429090 -1.825542
-1.409864 -13.234043 -1.719265
-0.717321 -13.932011 -1.724964
0.168446 -1.438005 0.273862
4.169704 -26.769495 1.755779
0.116211 -14.734886 -1.723638
0.969003 -15.835175 -1.711324
-0.132156 -10.819064 -1.781475
0.465596 -11.354389 -1.785699
2.077627 -17.171144 -1.730628
3.224628 -18.311213 -1.725309
1.227844 -12.058412 -1.799153
1.958263 -12.652820 -1.801378
-3.836839 -35.874813 -1.269606
-2.114836 -42.130966 -1.106778
-2.305136 -18.116352 -1.519964
-1.476008 -20.572149 -1.530266
0.274967 -52.454956 -0.966747
4.885092 -78.457855 -0.830177
-0.321691 -23.098518 -1.560820
1.133213 -27.178902 -1.615219
2.426187 -20.198603 0.104725
3.486233 -19.876362 0.302846
2.932760 -29.522028 -1.508656
3.103383 -20.038589 -0.823994
-3.886406 -35.503498 2.548920
-2.175960 -41.850780 3.426248
-4.567842 -35.647907 0.730247
-2.845791 -39.490402 1.106764
0.283730 -56.469437 4.973485
0.063220 -1.444470 0.336462
-0.739942 -47.206650 1.694718
2.476278 -60.656422 2.703310
-0.531458 -4.877266 -1.844214
-0.281417 -4.972328 -1.848906
1.039571 -9.891100 -1.834984
1.634451 -10.362618 -1.845970
0.063569 -5.044261 -1.827775
0.337522 -5.198280 -1.833725
-0.042813 -4.412588 -1.837415
0.193976 -4.516248 -1.844453
0.703473 -5.294527 -1.831080
0.999078 -5.407998 -1.825517
0.513632 -4.575992 -1.834637
0.775798 -4.679222 -1.829064
-0.714395 -6.733788 -1.824939
-0.384703 -7.021335 -1.833242
-0.740482 -5.672449 -1.823143
-0.445355 -5.782693 -1.823961
0.076321 -7.166098 -1.822287
0.475695 -7.485466 -1.838951
-0.064806 -5.960827 -1.831482
0.263690 -6.172138 -1.841986
0.990754 -7.778678 -1.847366
1.451419 -8.048759 -1.847562
0.682086 -6.321709 -1.838024
1.038217 -6.476164 -1.832505
-1.125572 -10.576077 -1.778699
-0.576008 -11.172073 -1.774161
-1.054171 -8.292247 -1.803904
-0.637293 -8.625420 -1.803597
0.109604 -11.747715 -1.787125
0.759955 -12.536869 -1.788105
-0.105545 -9.027317 -1.821734
0.396278 -9.444071 -1.828411
-1.452092 -13.235450 -1.720129
-0.761191 -13.931667 -1.725240
0.163927 -1.438527 0.273862
4.083159 -26.766676 1.754864
0.069931 -14.739144 -1.724160
0.920432 -15.857959 -1.713737
-0.166110 -10.816628 -1.781111
0.430396 -11.367603 -1.787787
2.022064 -17.163767 -1.729062
3.169477 -18.334970 -1.726762
1.188439 -12.046502 -1.796522
1.920003 -12.668671 -1.802937
-3.924425 -35.636162 -1.260266
-2.240239 -41.992367 -1.102663
-2.360738 -18.099152 -1.519018
-1.536679 -20.513750 -1.525717
0.109122 -51.801723 -0.952102
4.638818 -78.476799 -0.830230
-0.393458 -23.053530 -1.557452
1.042622 -27.050726 -1.606373
2.363867 -20.216057 0.104675
3.426507 -19.902983 0.302922
2.824278 -29.366121 -1.499049
3.037092 -20.026522 -0.822874
-4.003322 -35.538704 2.552067
-2.295379 -41.622726 3.409216
-4.683738 -35.663116 0.730685
-2.942932 -39.120361 1.098521
0.105364 -55.796444 4.916559
0.058682 -1.444661 0.336462
-0.877328 -46.640480 1.676924
2.252451 -59.791271 2.667355
-0.546130 -4.870060 -1.841932
-0.296431 -4.960316 -1.844393
1.006747 -9.876752 -1.831462
1.600973 -10.361879 -1.844849
0.047817 -5.066749 -1.836615
0.320443 -5.188140 -1.829419
-0.056812 -4.419707 -1.840740
0.179953 -4.520483 -1.846086
0.687995 -5.306005 -1.834585
0.981394 -5.407413 -1.824154
0.499065 -4.575760 -1.833836
0.761094 -4.681635 -1.829064
-0.734467 -6.721974 -1.822127
-0.405718 -7.000876 -1.827793
-0.759335 -5.677580 -1.825769
-0.463234 -5.777492 -1.822664
0.053770 -7.156664 -1.819625
0.453532 -7.508141 -1.844605
-0.083289 -5.947320 -1.827039
0.244048 -6.167234 -1.840135
0.967474 -7.791371 -1.849840
1.429229 -8.070485 -1.851840
0.662795 -6.329516 -1.839824
1.018475 -6.483173 -1.833668
-1.157478 -10.560756 -1.776561
-0.610898 -11.166271 -1.773484
-1.081505 -8.298545 -1.806183
-0.664244 -8.621430 -1.803156
0.072689 -11.746029 -1.786800
0.720683 -12.541167 -1.788409
-0.133559 -9.007406 -1.817464
0.365793 -9.425711 -1.824313
-1.491408 -13.211160 -1.717247
-0.804845 -13.927229 -1.724964
0.159407 -1.439035 0.273862
4.000829 -26.791218 1.755551
0.023629 -14.717481 -1.721286
0.870944 -15.866720 -1.714461
-0.200215 -10.821952 -1.782204
0.393880 -11.347250 -1.783958
1.967239 -17.162136 -1.728167
3.113872 -18.356606 -1.728008
1.150221 -12.046248 -1.795864
1.876079 -12.647291 -1.798569
-4.022550 -35.502544 -1.255268
-2.366576 -41.885326 -1.099545
-2.413323 -18.060078 -1.515993
-1.593946 -20.415430 -1.517798
-0.052634 -51.159973 -0.937725
3.694739 -66.099701 -0.666395
-0.464351 -22.980410 -1.551940
0.956111 -27.011992 -1.603558
2.301908 -20.237297 0.104604
3.368661 -19.941252 0.303056
2.095933 -22.469727 -1.097079
2.812644 -18.957411 -0.767235
-4.118880 -35.559647 2.554296
-0.106970 -1.403190 0.309900
-4.800850 -35.685886 0.731239
-3.038861 -38.764065 1.090597
-0.068774 -55.124901 4.859802
0.054143 -1.444838 0.336462
-1.012289 -46.123882 1.660707
2.034994 -58.951290 2.632469
-0.561206 -4.866485 -1.841172
-0.312973 -4.976012 -1.851162
0.975901 -9.881818 -1.831853
1.564229 -10.339671 -1.839619
0.031878 -5.048281 -1.829248
0.304379 -5.192847 -1.830854
-0.070577 -4.414051 -1.838246
0.165364 -4.511906 -1.842003
0.670418 -5.300702 -1.831781
0.964401 -5.410469 -1.824154
0.484687 -4.577306 -1.833836
0.747582 -4.691275 -1.832177
-0.755360 -6.717727 -1.821565
-0.429143 -7.024543 -1.834877
-0.775844 -5.665815 -1.822486
-0.481680 -5.779781 -1.823961
0.031288 -7.158727 -1.820158
0.429004 -7.494094 -1.840493
-0.102258 -5.960303 -1.831482
0.224440 -6.162268 -1.838283
0.941633 -7.782825 -1.846872
1.401834 -8.063458 -1.848988
0.641427 -6.316376 -1.835025
0.996311 -6.475000 -1.830180
-1.193580 -10.582482 -1.781194
-0.645538 -11.156425 -1.772130
-1.105725 -8.281601 -1.802992
-0.690726 -8.611522 -1.801392
0.035777 -11.734359 -1.784851
0.680834 -12.535478 -1.787192
-0.161815 -9.004989 -1.817037
0.336780 -9.442462 -1.827591
-1.531279 -13.192652 -1.715229
-0.846958 -13.896948 -1.721100
0.154885 -1.439529 0.273862
3.914610 -26.789824 1.754749
-0.022639 -14.727394 -1.722592
0.820459 -15.857482 -1.713013
-0.233975 -10.811440 -1.780382
0.358031 -11.342527 -1.782914
1.910274 -17.140575 -1.725036
3.050262 -18.330980 -1.724271
1.112194 -12.047836 -1.795535
1.837777 -12.662893 -1.800129
-4.137087 -35.515533 -1.256333
-2.474941 -41.484554 -1.087262
-2.466774 -18.028736 -1.513724
-1.661727 -20.456013 -1.521673
-0.210548 -50.559715 -0.924288
3.449288 -65.400040 -0.656997
-0.535663 -22.942953 -1.549185
0.868796 -26.941067 -1.598599
0.163803 -1.259676 0.200556
3.303034 -19.933983 0.302970
2.025334 -22.476198 -1.097079
2.897591 -19.952322 -0.818084
-4.235555 -35.588142 2.557050
-0.111377 -1.402847 0.309900
-4.920887 -35.728069 0.732086
-3.130802 -38.385620 1.082172
-0.238908 -54.498650 4.806918
0.049603 -1.445001 0.336462
-1.143905 -45.602901 1.644363
1.823797 -58.140495 2.598817
-0.577173 -4.870205 -1.843453
-0.327704 -4.960206 -1.845145
0.944308 -9.878977 -1.830679
1.532617 -10.350362 -1.840740
0.015992 -5.061371 -1.834405
0.289417 -5.216137 -1.839468
-0.084808 -4.428355 -1.844895
0.151189 -4.512403 -1.842003
0.655083 -5.313942 -1.835987
0.952726 -5.443083 -1.835053
0.470305 -4.578805 -1.833836
0.729899 -4.675413 -1.824395
-0.778054 -6.728661 -1.825501
-0.450628 -7.013556 -1.832152
-0.793369 -5.661479 -1.821830
-0.499526 -5.774467 -1.822664
0.008798 -7.158789 -1.820158
0.405237 -7.491547 -1.839465
-0.120655 -5.946679 -1.827039
0.205365 -6.170547 -1.840752
0.917399 -7.787670 -1.847366
1.376829 -8.069736 -1.849463
0.621938 -6.322159 -1.836224
0.976258 -6.479989 -1.830761
-1.226356 -10.574771 -1.780481
-0.678620 -11.120890 -1.766376
-1.133624 -8.291585 -1.806183
-0.717151 -8.601531 -1.799627
-0.001101 -11.740333 -1.785825
0.640820 -12.525709 -1.785366
-0.190010 -9.000528 -1.816183
0.306149 -9.416084 -1.821854
-1.574386 -13.201529 -1.717247
-0.890121 -13.886312 -1.719996
0.150362 -1.440009 0.273862
3.834124 -26.827686 1.756237
-0.068843 -14.717340 -1.721286
0.770238 -15.852050 -1.712048
-0.267672 -10.800823 -1.778560
0.322335 -11.341627 -1.782566
1.856415 -17.146490 -1.725036
2.985550 -18.297295 -1.719703
1.073484 -12.041446 -1.793891
1.794888 -12.647098 -1.796698
-4.148547 -34.671066 -1.222003
-2.579328 -41.059593 -1.074232
-2.518938 -17.989355 -1.510698
-1.722518 -20.408985 -1.518135
-0.364524 -49.936977 -0.910359
3.193286 -64.399902 -0.643639
-0.600635 -22.684010 -1.529435
0.781694 -26.861887 -1.593104
0.159845 -1.260185 0.200556
3.244918 -19.971893 0.303104
1.956419 -22.502346 -1.098237
2.854165 -20.095778 -0.825013
-4.353670 -35.626167 2.560459
-2.697489 -41.754463 3.421184
-5.038438 -35.750057 0.732641
-3.223583 -38.044849 1.074612
-0.405050 -53.863911 4.753361
0.045063 -1.445150 0.336462
-1.273357 -45.119518 1.629219
1.617708 -57.328972 2.565166
-0.592471 -4.868367 -1.843453
-0.343641 -4.964700 -1.847401
0.912565 -9.874081 -1.829114
1.500952 -10.360958 -1.841860
0.000072 -5.065115 -1.835878
0.271639 -5.192793 -1.830136
-0.098259 -4.411702 -1.837415
0.137012 -4.512856 -1.842003
0.637528 -5.308531 -1.833183
0.933659 -5.434939 -1.830966
0.456260 -4.583910 -1.835437
0.717514 -4.692240 -1.830621
-0.798488 -6.720469 -1.823814
-0.472782 -7.014027 -1.832697
-0.811704 -5.662696 -1.823143
-0.517665 -5.772870 -1.822664
-0.013714 -7.162637 -1.821223
0.381384 -7.486992 -1.837922
-0.139653 -5.957646 -1.830848
0.185979 -6.171162 -1.840752
0.893142 -7.792441 -1.847861
1.348202 -8.054873 -1.844709
0.601554 -6.318381 -1.834425
0.955322 -6.479240 -1.829599
-1.259572 -10.570867 -1.780481
-0.716474 -11.165920 -1.774500
-1.157737 -8.274490 -1.802992
-0.744820 -8.607012 -1.801392
-0.037920 -11.728431 -1.783877
0.601663 -12.531610 -1.785975
-0.218498 -9.007700 -1.817891
0.277194 -9.436566 -1.825952
-1.614140 -13.182770 -1.715229
-0.933224 -13.875539 -1.718892
0.145838 -1.440474 0.273862
3.747878 -26.825756 1.755436
-0.115097 -14.719032 -1.721547
0.720155 -15.848442 -1.711324
-0.301602 -10.799929 -1.778560
0.286920 -11.350458 -1.783958
1.798035 -17.108747 -1.720115
2.928688 -18.310511 -1.720118
1.034168 -12.027065 -1.790931
1.758453 -12.676147 -1.800442
-4.263575 -34.707443 -1.224051
-2.683410 -40.670280 -1.062323
-2.569453 -17.939972 -1.506728
-1.780285 -20.330008 -1.511901
-0.515044 -49.355770 -0.897371
2.943143 -63.388824 -0.630148
-0.673612 -22.737820 -1.533722
0.695853 -26.810350 -1.589485
0.155885 -1.260681 0.200556
3.182477 -19.983961 0.303114
1.886868 -22.522310 -1.099047
2.776883 -20.003765 -0.819816
-4.469564 -35.643993 2.562557
-2.821836 -41.644314 3.413359
-5.158751 -35.789467 0.733458
-3.313901 -37.699890 1.066961
-0.567489 -53.254578 4.701993
0.040523 -1.445284 0.336462
-1.399267 -44.619801 1.613570
1.418272 -56.576656 2.533983
-0.606328 -4.855476 -1.838891
-0.359236 -4.963595 -1.847401
0.881710 -9.878853 -1.829505
1.468115 -10.363677 -1.841487
-0.015886 -5.070668 -1.838088
0.256435 -5.214125 -1.838032
-0.112744 -4.431372 -1.846558
0.122653 -4.507790 -1.839553
0.620640 -5.308646 -1.832482
0.914974 -5.428581 -1.827560
0.441692 -4.583495 -1.834637
0.701074 -4.683548 -1.825952
-0.819836 -6.719831 -1.824376
-0.494044 -7.000986 -1.829428
-0.828925 -5.656382 -1.821830
-0.535798 -5.771214 -1.822664
-0.036182 -7.158704 -1.820158
0.357763 -7.486223 -1.837409
-0.158016 -5.945804 -1.827039
0.166413 -6.166011 -1.838900
0.868866 -7.797134 -1.848356
1.325778 -8.076312 -1.848988
0.581201 -6.314538 -1.832625
0.935243 -6.484102 -1.830180
-1.290337 -10.547329 -1.776917
-0.750526 -11.147878 -1.771792
-1.185417 -8.282372 -1.805727
-0.772192 -8.608516 -1.802274
-0.074714 -11.722334 -1.782903
0.561551 -12.517642 -1.783541
-0.246735 -9.005016 -1.817464
0.246867 -9.413909 -1.821035
-1.655297 -13.175672 -1.714940
-0.976811 -13.872539 -1.718892
0.141312 -1.440925 0.273862
0.169617 -1.424570 0.285007
-0.161212 -14.708684 -1.720241
0.669054 -15.820874 -1.707704
-0.335266 -10.791065 -1.777102
0.251067 -11.343429 -1.782566
1.746064 -17.132107 -1.722128
2.863690 -18.272467 -1.715136
0.996854 -12.036153 -1.791917
1.716466 -12.665952 -1.797945
-4.455036 -35.344120 -1.250925
-2.786716 -40.304653 -1.051163
-2.624345 -17.921963 -1.505782
-1.841305 -20.292553 -1.509206
-0.659863 -48.628159 -0.881113
2.700773 -62.408794 -0.617081
-0.751937 -22.938875 -1.549338
0.609961 -26.742580 -1.584794
0.151924 -1.261164 0.200556
3.118747 -19.987936 0.303085
2.372472 -29.530264 -1.506225
2.658204 -19.604725 -0.798824
-4.586898 -35.671337 2.565311
-2.946501 -41.547718 3.406607
-5.278193 -35.820557 0.734159
-3.401729 -37.350761 1.059219
-0.726366 -52.662685 4.652141
2.992373 -70.360519 6.814425
-1.522825 -44.141708 1.598616
1.223708 -55.829662 2.503046
-0.622803 -4.862715 -1.842693
-0.375088 -4.966140 -1.848906
0.849039 -9.862029 -1.825592
1.435000 -10.364347 -1.840740
-0.031774 -5.066875 -1.836615
0.239102 -5.196261 -1.830854
-0.126164 -4.416451 -1.839909
0.109035 -4.526402 -1.847719
0.603149 -5.303121 -1.829677
0.898546 -5.435137 -1.828923
0.426970 -4.581208 -1.833036
0.686079 -4.683906 -1.825174
-0.840698 -6.715319 -1.823814
-0.516574 -7.007078 -1.831608
-0.848133 -5.663086 -1.825113
-0.554099 -5.771386 -1.823313
-0.058717 -7.162409 -1.821223
0.334242 -7.487310 -1.837409
-0.176889 -5.950964 -1.828944
0.147147 -6.170307 -1.840135
0.843760 -7.794043 -1.846872
1.300084 -8.078520 -1.848512
0.561682 -6.320134 -1.833825
0.914868 -6.487008 -1.830180
-1.324966 -10.554936 -1.779056
-0.785143 -11.139565 -1.770776
-1.210856 -8.274755 -1.804816
-0.798360 -8.596334 -1.800068
-0.111495 -11.718094 -1.782253
0.522308 -12.521319 -1.783845
-0.274633 -8.992480 -1.814902
0.217594 -9.426379 -1.823494
-1.696425 -13.168443 -1.714652
-1.020106 -13.865450 -1.718341
0.136784 -1.441362 0.273862
0.165141 -1.425096 0.285007
-0.207483 -14.712070 -1.720764
0.619186 -15.818929 -1.707222
-0.368950 -10.784063 -1.776009
0.215429 -11.344162 -1.782566
1.688001 -17.093990 -1.717207
2.791042 -18.183086 -1.704755
0.958731 -12.035293 -1.791260
1.679824 -12.694778 -1.801689
-4.576098 -35.407238 -1.254121
-2.886752 -39.924835 -1.039566
-2.673496 -17.866383 -1.501244
-1.902107 -20.254921 -1.506510
-0.794358 -47.566265 -0.857375
2.473422 -61.645672 -0.606891
-0.822448 -22.894556 -1.546123
0.521701 -26.538872 -1.570988
0.147961 -1.261636 0.200556
3.060811 -20.029261 0.303238
2.241409 -29.035873 -1.477058
2.556888 -19.316017 -0.783539
-4.705497 -35.706207 2.568589
-3.067519 -41.408993 3.396634
-5.396686 -35.843346 0.734743
-3.489072 -37.019375 1.051887
-0.882016 -52.098240 4.604647
0.031441 -1.445511 0.336462
-1.645075 -43.707233 1.585049
1.034273 -55.103981 2.473015
-0.636824 -4.851571 -1.838891
-0.390280 -4.959393 -1.846650
0.816483 -9.845096 -1.821678
1.402969 -10.372697 -1.841487
-0.047475 -5.051877 -1.830722
0.222687 -5.195123 -1.830136
-0.140380 -4.425123 -1.844064
0.094668 -4.521247 -1.845269
0.587272 -5.312441 -1.832482
0.880227 -5.430513 -1.826198
0.412884 -4.586180 -1.834637
0.672175 -4.691504 -1.827508
-0.861791 -6.712645 -1.823814
-0.538304 -7.001583 -1.830518
-0.863566 -5.645464 -1.819860
-0.572406 -5.771502 -1.823961
-0.081103 -7.154480 -1.819093
0.310545 -7.484462 -1.836380
-0.195019 -5.935217 -1.823866
0.127857 -6.174542 -1.841369
0.819662 -7.800512 -1.847861
1.275932 -8.090237 -1.850414
0.542444 -6.329475 -1.836224
0.895827 -6.499323 -1.833087
-1.359143 -10.558525 -1.780481
-0.821257 -11.152772 -1.773484
-1.237434 -8.274760 -1.805727
-0.825724 -8.597667 -1.800950
-0.148249 -11.713740 -1.781603
0.482407 -12.509072 -1.781715
-0.303097 -8.997432 -1.816183
0.187490 -9.405489 -1.818986
-1.736209 -13.151279 -1.712922
-1.063068 -13.854276 -1.717237
0.132255 -1.441784 0.273862
0.160663 -1.425608 0.285007
-0.253512 -14.701434 -1.719457
0.569562 -15.822781 -1.707463
-0.402983 -10.786780 -1.776738
0.179540 -11.330997 -1.780130
1.640620 -17.166487 -1.724812
2.726445 -18.142597 -1.699565
0.921063 -12.040213 -1.791589
1.636337 -12.672571 -1.797322
-4.684142 -35.368916 -1.253138
-2.984126 -39.540802 -1.027844
-2.727788 -17.846088 -1.500110
-1.960028 -20.189331 -1.501456
-0.933227 -47.045776 -0.845775
2.242453 -60.655918 -0.593717
-0.893486 -22.869942 -1.544438
0.438501 -26.550356 -1.571659
0.143997 -1.262094 0.200556
2.993695 -20.011091 0.303104
2.160813 -29.188141 -1.485507
2.487920 -19.260572 -0.780278
-4.823281 -35.732784 2.571342
-3.193479 -41.345459 3.392491
-5.516591 -35.873650 0.735444
-3.574363 -36.687809 1.044555
-1.034407 -51.547279 4.558332
0.026900 -1.445602 0.336462
-1.763861 -43.254456 1.570914
0.849996 -54.413635 2.444465
-0.652575 -4.853210 -1.840412
-0.406000 -4.959990 -1.847401
0.787360 -9.871080 -1.826374
1.370376 -10.377053 -1.841487
-0.063543 -5.062857 -1.835142
0.207533 -5.221905 -1.840186
-0.153911 -4.415572 -1.839909
0.080507 -4.523348 -1.846086
0.570389 -5.312397 -1.831781
0.862251 -5.427685 -1.824154
0.398622 -4.589282 -1.835437
0.656105 -4.684478 -1.823617
-0.881586 -6.700394 -1.821003
-0.560004 -6.996019 -1.829428
-0.883398 -5.655779 -1.824456
-0.589982 -5.764026 -1.822015
-0.103648 -7.158044 -1.820158
0.286950 -7.483469 -1.835866
-0.214046 -5.944050 -1.827039
0.108334 -6.169208 -1.839518
0.794202 -7.793406 -1.845387
1.248391 -8.080771 -1.847086
0.522408 -6.329246 -1.835625
0.874880 -6.498315 -1.831924
-1.392568 -10.556154 -1.780838
-0.855997 -11.146208 -1.772807
-1.264323 -8.276606 -1.807095
-0.852356 -8.591147 -1.800068
-0.185225 -11.723083 -1.783227
0.442885 -12.504600 -1.780802
-0.331128 -8.990577 -1.814902
0.157941 -9.406031 -1.818986
-1.777785 -13.147721 -1.713211
-1.106279 -13.846918 -1.716685
0.127725 -1.442193 0.273862
0.156183 -1.426106 0.285007
-0.299741 -14.702547 -1.719719
0.519234 -15.806634 -1.705291
-0.436448 -10.775638 -1.774915
0.143882 -11.327568 -1.779434
1.583083 -17.131968 -1.720339
2.662421 -18.103851 -1.694582
0.882252 -12.029271 -1.789286
1.599526 -12.701162 -1.801065
-4.810356 -35.464905 -1.257726
-3.080208 -39.170502 -1.016559
-2.782911 -17.831528 -1.499542
-2.020306 -20.151340 -1.498760
-1.069216 -46.540878 -0.834534
2.022925 -59.817230 -0.582550
-0.964812 -22.855064 -1.543520
0.355173 -26.557589 -1.572061
0.140031 -1.262540 0.200556
0.181765 -1.408540 0.213030
2.033840 -28.690866 -1.456225
2.430174 -19.290089 -0.781399
-4.941283 -35.758965 2.574096
-3.321770 -41.315350 3.390957
-5.637054 -35.905521 0.736174
-3.659397 -36.373981 1.037633
-1.182737 -50.969986 4.509827
0.022358 -1.445680 0.336462
-1.879912 -42.803364 1.556843
0.669905 -53.710693 2.415421
-0.667819 -4.851136 -1.840412
-0.420991 -4.951300 -1.844393
0.755187 -9.857856 -1.823244
1.335720 -10.365724 -1.838498
-0.079293 -5.055196 -1.832195
0.189886 -5.192688 -1.828701
-0.168500 -4.431422 -1.847389
0.066110 -4.514451 -1.842003
0.553512 -5.312298 -1.831080
0.849069 -5.454504 -1.833010
0.384060 -4.588684 -1.834637
0.641385 -4.686515 -1.823617
-0.905532 -6.718504 -1.827188
-0.581370 -6.986552 -1.827249
-0.899020 -5.639926 -1.819860
-0.608657 -5.767791 -1.823961
-0.125972 -7.149973 -1.818028
0.264110 -7.501716 -1.840493
-0.232637 -5.941454 -1.826405
0.089094 -6.177126 -1.841986
0.769346 -7.792005 -1.844398
1.223592 -8.088493 -1.848037
0.502092 -6.325147 -1.833825
0.855231 -6.506720 -1.833668
-1.426530 -10.557575 -1.781907
-0.891010 -11.143462 -1.772807
-1.289707 -8.268745 -1.806183
-0.880306 -8.598133 -1.802274
-0.221762 -11.708632 -1.780954
0.403597 -12.505929 -1.780802
-0.359037 -8.981684 -1.813194
0.128583 -9.418224 -1.821445
-1.819357 -13.144031 -1.713499
-1.149616 -13.841399 -1.716409
0.123194 -1.442587 0.273862
0.151702 -1.426589 0.285007
-0.345829 -14.697569 -1.719196
0.469323 -15.800249 -1.704326
-0.469937 -10.766356 -1.773458
0.108271 -11.325994 -1.779085
1.525606 -17.095282 -1.715641
2.618976 -18.204645 -1.704340
0.844590 -12.033952 -1.789615
1.557169 -12.686522 -1.797945
-4.944955 -35.615864 -1.264608
-3.173993 -38.799995 -1.005274
-2.835126 -17.799112 -1.497274
-2.080769 -20.117138 -1.496401
-1.201776 -46.025600 -0.823068
1.809186 -58.993771 -0.571594
-1.034202 -22.800129 -1.539539
0.270909 -26.484745 -1.567101
0.136064 -1.262974 0.200556
2.852170 -19.920635 0.302577
1.946889 -28.744926 -1.459003
2.370544 -19.305557 -0.781807
-5.060902 -35.794636 2.577505
-3.452870 -41.320610 3.392184
-5.756185 -35.927120 0.736758
-3.741266 -36.048050 1.030437
-1.329163 -50.456017 4.466712
0.017817 -1.445743 0.336462
-1.994194 -42.373940 1.543465
0.494632 -53.047127 2.388022
-0.683056 -4.849014 -1.840412
-0.437616 -4.962882 -1.849658
0.724491 -9.864093 -1.824026
1.303398 -10.371818 -1.838872
-0.095442 -5.066076 -1.836615
0.173500 -5.191394 -1.827983
-0.181395 -4.409066 -1.837415
0.051958 -4.516462 -1.842819
0.538074 -5.327063 -1.835987
0.828715 -5.436711 -1.825517
0.369232 -4.584384 -1.832236
0.625642 -4.681209 -1.820505
-0.925017 -6.704225 -1.823814
-0.603792 -6.990444 -1.828883
-0.917358 -5.640801 -1.821173
-0.625991 -5.758323 -1.821367
-0.148716 -7.161106 -1.821223
0.240061 -7.488987 -1.836895
-0.250771 -5.929327 -1.822597
0.069452 -6.162158 -1.837049
0.745040 -7.796312 -1.844892
1.198465 -8.094219 -1.848512
0.482630 -6.332403 -1.835625
0.833279 -6.497993 -1.830180
-1.458319 -10.543298 -1.780125
-0.924903 -11.126855 -1.770438
-1.315678 -8.264653 -1.806183
-0.907115 -8.593386 -1.801833
-0.258401 -11.701959 -1.779980
0.363813 -12.491330 -1.778367
-0.386893 -8.972704 -1.811486
0.098682 -9.395094 -1.816527
-1.840000 -13.141156 -1.713499
-1.171682 -13.843525 -1.716961
4.684760 -70.848320 3.663785
0.149461 -1.426826 0.285007
-0.368755 -14.691060 -1.718412
0.444092 -15.787076 -1.702637
-0.486566 -10.759711 -1.772364
0.090360 -11.314333 -1.776997
1.497388 -17.081816 -1.713852
2.595472 -18.244177 -1.708077
0.824903 -12.023453 -1.787642
1.538931 -12.702678 -1.800129
-4.903955 -34.921444 -1.236177
-3.206424 -38.450306 -0.994488
-2.856697 -17.755329 -1.493492
-2.107225 -20.064289 -1.492189
-1.259500 -45.507988 -0.811513
1.692787 -58.192955 -0.560982
-1.067810 -22.752666 -1.536018
0.228271 -26.377382 -1.559864
0.134080 -1.263186 0.200556
2.842378 -20.075562 0.303305
1.914476 -28.943203 -1.470345
2.339488 -19.303308 -0.781501
-5.121660 -35.818249 2.579603
-3.515081 -41.283340 3.389729
-5.818706 -35.955544 0.737312
-3.767082 -35.747814 1.023697
-1.393177 -49.917995 4.421407
2.052391 -72.308578 6.994134
-2.041278 -41.975430 1.530971
0.405924 -52.394413 2.361118
-0.691754 -4.855255 -1.843453
-0.444943 -4.956648 -1.847401
0.708725 -9.861305 -1.823244
1.287599 -10.377749 -1.839619
-0.103447 -5.067778 -1.837351
0.166170 -5.214046 -1.836597
-0.188850 -4.419677 -1.842402
0.044692 -4.505586 -1.837920
0.529706 -5.327901 -1.835987
0.821910 -5.449154 -1.829604
0.362700 -4.594098 -1.836237
0.621554 -4.705913 -1.830621
-0.933638 -6.689465 -1.819878
-0.614610 -6.987570 -1.828338
-0.926847 -5.643079 -1.822486
-0.635432 -5.761096 -1.822664
-0.159664 -7.149300 -1.818028
0.228363 -7.491286 -1.837409
-0.260541 -5.938397 -1.825770
0.059799 -6.164162 -1.837666
0.732094 -7.789753 -1.842913
1.185750 -8.096091 -1.848512
0.472683 -6.333153 -1.835625
0.824559 -6.510678 -1.833668
-1.471825 -10.519563 -1.776204
-0.943835 -11.143068 -1.773484
-1.328973 -8.264498 -1.806639
-0.919804 -8.584187 -1.800068
-0.276934 -11.707457 -1.780954
0.344251 -12.493861 -1.778672
-0.400986 -8.972085 -1.811486
0.084108 -9.410896 -1.819805
-1.879570 -13.123560 -1.711769
-1.214489 -13.831882 -1.715857
0.116394 -1.443151 0.273862
0.144978 -1.427289 0.285007
-0.415264 -14.701721 -1.719980
0.393805 -15.762592 -1.699500
-0.520167 -10.754203 -1.771636
0.054828 -11.316532 -1.777345
1.436649 -17.001266 -1.704233
2.528733 -18.185270 -1.701018
0.787748 -12.035830 -1.789286
1.495721 -12.679989 -1.795762
-4.987083 -34.721931 -1.228557
-3.297616 -38.095482 -0.983702
-2.909536 -17.728588 -1.491790
-2.167072 -20.027845 -1.489662
-1.387406 -45.024166 -0.800763
1.487376 -57.342365 -0.549683
-1.136225 -22.689453 -1.531425
0.145583 -26.405909 -1.561740
0.130111 -1.263601 0.200556
2.783445 -20.114105 0.303449
1.811041 -28.747803 -1.458655
2.282147 -19.338331 -0.782928
-5.239965 -35.841473 2.582226
-3.623861 -41.033722 3.371316
-5.940467 -35.990356 0.738101
-3.850433 -35.467430 1.017550
-1.533642 -49.395477 4.377618
1.826691 -72.372398 6.999557
-2.170525 -41.918907 1.529394
0.238147 -51.773972 2.335529
-0.705899 -4.845742 -1.840412
-0.461322 -4.964457 -1.851162
0.677483 -9.859570 -1.822461
1.253305 -10.368093 -1.837004
-0.119101 -5.058135 -1.833668
0.149160 -5.195886 -1.829419
-0.202076 -4.406346 -1.836584
0.030766 -4.523960 -1.846086
0.511943 -5.318347 -1.831781
0.803086 -5.440556 -1.825517
0.348009 -4.591558 -1.834637
0.607258 -4.711494 -1.832177
-0.955485 -6.692194 -1.821565
-0.636392 -6.983687 -1.827793
-0.943929 -5.636416 -1.821173
-0.653119 -5.755310 -1.821367
-0.182067 -7.146837 -1.817496
0.204708 -7.488103 -1.836380
-0.278417 -5.922396 -1.820693
0.040474 -6.168124 -1.838900
0.707618 -7.792015 -1.842913
1.160591 -8.101699 -1.848988
0.452656 -6.332703 -1.835025
0.803859 -6.511338 -1.833087
-1.505434 -10.518783 -1.776917
-0.978670 -11.138084 -1.773146
-1.352040 -8.242996 -1.802537
-0.946768 -8.581256 -1.800068
-0.313313 -11.692720 -1.778680
0.304946 -12.492906 -1.778367
-0.429468 -8.976637 -1.812767
0.054325 -9.385667 -1.814478
-1.919044 -13.105844 -1.710040
-1.256179 -13.808268 -1.713097
4.250426 -71.059837 3.672742
0.140494 -1.427737 0.285007
-0.460922 -14.684491 -1.717890
0.344005 -15.751843 -1.698052
-0.553949 -10.752516 -1.771636
0.019237 -11.306801 -1.775605
1.384023 -17.015604 -1.705352
2.470509 -18.185240 -1.700188
0.749223 -12.026431 -1.787313
1.459777 -12.717983 -1.801065
-5.250782 -35.753853 -1.271982
-3.389619 -37.774315 -0.973975
-2.960244 -17.689913 -1.488954
-2.226054 -19.985285 -1.486629
-1.512073 -44.533993 -0.789880
1.289657 -56.591022 -0.539704
-1.205550 -22.649931 -1.528669
0.062413 -26.342382 -1.557451
0.126141 -1.264004 0.200556
2.723488 -20.146530 0.303564
1.719780 -28.737406 -1.457730
2.221615 -19.347391 -0.783029
-5.359944 -35.874172 2.585504
-3.728215 -40.752048 3.350449
-6.062500 -36.024754 0.738889
-3.962497 -35.461121 1.017686
-1.671040 -48.878551 4.334334
0.006461 -1.445838 0.336462
-2.290672 -41.704308 1.522831
0.074251 -51.139000 2.309365
-0.721400 -4.845328 -1.841172
-0.475407 -4.946372 -1.844393
0.646505 -9.861649 -1.822461
1.219555 -10.362226 -1.835136
-0.135345 -5.068887 -1.838088
0.133350 -5.213121 -1.835879
-0.216716 -4.420220 -1.843233
0.016502 -4.518557 -1.843636
0.495397 -5.321795 -1.832482
0.788489 -5.459791 -1.831647
0.333093 -4.585314 -1.831435
0.593173 -4.718859 -1.834511
-0.978496 -6.702447 -1.825501
-0.658849 -6.987404 -1.829428
-0.961305 -5.631562 -1.820517
-0.671407 -5.755110 -1.822015
-0.204705 -7.152010 -1.819093
0.181183 -7.488710 -1.836380
-0.297847 -5.936643 -1.825770
0.021068 -6.164416 -1.837666
0.683136 -7.794199 -1.842913
1.135134 -8.105305 -1.848988
0.433371 -6.343614 -1.838024
0.782692 -6.508134 -1.831343
-1.538471 -10.514002 -1.776917
-1.013308 -11.131030 -1.772469
-1.380219 -8.252146 -1.805727
-0.974364 -8.584057 -1.801392
-0.349981 -11.689705 -1.778356
0.265421 -12.481944 -1.776542
-0.456825 -8.959634 -1.809351
0.024934 -9.403410 -1.818166
-1.960803 -13.103665 -1.710616
-1.299371 -13.802280 -1.712821
4.018290 -70.915260 3.665050
0.136007 -1.428171 0.285007
-0.506765 -14.675043 -1.716845
0.294436 -15.748876 -1.697569
-0.586942 -10.736979 -1.769085
-0.016285 -11.306806 -1.775605
1.333901 -17.063463 -1.710273
2.413894 -18.196856 -1.700603
0.711325 -12.026755 -1.786984
1.415352 -12.683248 -1.794826
-5.358910 -35.709515 -1.270835
-3.477255 -37.427071 -0.963438
-3.012766 -17.662867 -1.487252
-2.281204 -19.910862 -1.480901
-1.634431 -44.063473 -0.779444
1.096747 -55.843006 -0.529778
-1.273495 -22.590288 -1.524383
-0.020348 -26.330473 -1.556647
0.122169 -1.264394 0.200556
2.658067 -20.139126 0.303487
1.631936 -28.786526 -1.460276
2.163513 -19.378092 -0.784252
-5.478973 -35.898582 2.588258
-3.829534 -40.456223 3.328507
-6.183794 -36.052826 0.739590
-4.078194 -35.486240 1.018551
-1.805436 -48.367226 4.291556
0.001919 -1.445851 0.336462
-2.395440 -41.249889 1.508697
-0.085704 -50.541489 2.284764
-0.736043 -4.839384 -1.839651
-0.491117 -4.946700 -1.845145
0.614701 -9.849927 -1.819722
1.187908 -10.373811 -1.836630
-0.151074 -5.062861 -1.835878
0.116766 -5.206050 -1.833007
-0.229652 -4.403173 -1.835753
0.002330 -4.522238 -1.845269
0.478834 -5.325191 -1.833183
0.769159 -5.447355 -1.826198
0.318336 -4.580851 -1.829034
0.579750 -4.731664 -1.839180
-0.999547 -6.699340 -1.825501
-0.679181 -6.968055 -1.824525
-0.979989 -5.634094 -1.822486
-0.688834 -5.747334 -1.820070
-0.227173 -7.151331 -1.819093
0.157608 -7.487310 -1.835866
-0.315404 -5.916744 -1.819423
0.001770 -6.179671 -1.842604
0.658332 -7.792444 -1.841924
1.108586 -8.101134 -1.847086
0.412974 -6.337327 -1.835625
0.763392 -6.520060 -1.834249
-1.571790 -10.511063 -1.777273
-1.048272 -11.127790 -1.772469
-1.405804 -8.245851 -1.805272
-1.000886 -8.577077 -1.800509
-0.386495 -11.682631 -1.777381
0.226166 -12.480742 -1.776237
-0.484303 -8.946451 -1.806789
-0.004661 -9.379951 -1.813249
-2.000141 -13.085705 -1.708887
-1.341219 -13.782354 -1.710613
3.793581 -70.891640 3.663298
0.131520 -1.428591 0.285007
-0.553021 -14.677341 -1.717367
0.244823 -15.741784 -1.696604
-0.621261 -10.744897 -1.770907
-0.051805 -11.306700 -1.775605
1.281891 -17.089371 -1.712733
2.358007 -18.214211 -1.701641
0.673327 -12.024992 -1.786326
1.377019 -12.701377 -1.797009
-4.836819 -31.574562 -1.100003
-3.562549 -37.077660 -0.952839
-3.063082 -17.623894 -1.484416
-2.342821 -19.895679 -1.480227
-1.754170 -43.600616 -0.769188
0.908862 -55.112354 -0.520089
-1.342645 -22.556320 -1.522086
-0.102616 -26.176628 -1.546327
0.118196 -1.264771 0.200556
2.598657 -20.177128 0.303631
1.543383 -28.827398 -1.462359
2.103280 -19.390747 -0.784558
-5.598514 -35.924564 2.591142
-3.922468 -40.092693 3.301348
-6.304284 -36.074585 0.740203
-4.193850 -35.508999 1.019371
-1.937121 -47.867493 4.249788
0.930530 -59.152363 5.756550
-2.500456 -40.845123 1.496140
-0.241889 -49.941486 2.260081
-0.752123 -4.842526 -1.841932
-0.506655 -4.945132 -1.845145
0.583644 -9.849851 -1.819330
1.153979 -10.365781 -1.834389
-0.167262 -5.069795 -1.838825
0.100819 -5.223188 -1.839468
-0.244484 -4.418772 -1.843233
-0.011923 -4.507617 -1.838737
0.462408 -5.330403 -1.834585
0.752308 -5.451606 -1.826879
0.304720 -4.594635 -1.834637
0.561686 -4.707867 -1.828286
-1.017920 -6.679101 -1.820440
-0.702181 -6.977379 -1.827793
-0.995656 -5.619835 -1.818547
-0.707108 -5.747020 -1.820718
-0.249563 -7.148656 -1.818560
0.134044 -7.485837 -1.835352
-0.335603 -5.942227 -1.828309
-0.017654 -6.172036 -1.840135
0.633849 -7.794474 -1.841924
1.084185 -8.112277 -1.848988
0.393063 -6.338593 -1.835625
0.743353 -6.526227 -1.835412
-1.602388 -10.490516 -1.774422
-1.083039 -11.122480 -1.772130
-1.430345 -8.233723 -1.803448
-1.027827 -8.573891 -1.800509
-0.422739 -11.669528 -1.775433
0.186754 -12.469531 -1.774411
-0.512289 -8.942935 -1.806362
-0.034140 -9.393592 -1.816117
-2.040005 -13.071538 -1.707733
-1.385095 -13.783987 -1.711441
3.577429 -71.034882 3.669724
0.127031 -1.428998 0.285007
-0.598454 -14.659683 -1.715277
0.195059 -15.720637 -1.693950
-0.655139 -10.744855 -1.771271
-0.087209 -11.284816 -1.771776
1.228196 -17.093315 -1.712733
2.304553 -18.251127 -1.704755
0.635545 -12.027047 -1.786326
1.333316 -12.670285 -1.791394
-4.925127 -31.490118 -1.097136
-3.649411 -36.765888 -0.943424
-3.115986 -17.600464 -1.483092
-2.397503 -19.822922 -1.474667
-1.871021 -43.137444 -0.758932
0.725572 -54.381069 -0.510401
-1.409310 -22.486319 -1.517034
-0.184380 -26.098351 -1.541099
0.114222 -1.265136 0.200556
2.538528 -20.210985 0.303755
1.445606 -28.686529 -1.453910
2.607220 -24.694300 -1.056333
-5.721111 -35.967892 2.595207
-4.016745 -39.764698 3.276952
-6.427085 -36.107754 0.740991
-4.310410 -35.537334 1.020327
-2.066481 -47.385334 4.209536
0.737323 -58.589527 5.703441
-2.604643 -40.466034 1.484403
-0.394669 -49.388962 2.237372
-0.766435 -4.834663 -1.839651
-0.522928 -4.950892 -1.848153
0.552906 -9.855553 -1.820113
1.121624 -10.371306 -1.834762
-0.182422 -5.050666 -1.831458
0.083936 -5.201082 -1.830854
-0.256963 -4.396197 -1.833259
-0.026084 -4.516685 -1.842819
0.445072 -5.324359 -1.831781
0.735177 -5.453942 -1.826879
0.289968 -4.590080 -1.832236
0.547783 -4.716924 -1.831399
-1.037387 -6.666392 -1.817629
-0.722949 -6.963651 -1.824525
-1.013650 -5.618536 -1.819204
-0.725160 -5.744770 -1.820718
-0.271860 -7.143985 -1.817496
0.110526 -7.486221 -1.835352
-0.353058 -5.922216 -1.821962
-0.037037 -6.168145 -1.838900
0.608780 -7.788697 -1.839945
1.059208 -8.119493 -1.849938
0.373461 -6.345511 -1.837424
0.722192 -6.522827 -1.833668
-1.638418 -10.504865 -1.777986
-1.117976 -11.119023 -1.772130
-1.459313 -8.246437 -1.807551
-1.054990 -8.572555 -1.800950
-0.459563 -11.672087 -1.776082
0.147496 -12.464127 -1.773499
-0.540505 -8.943232 -1.806789
-0.063581 -9.375821 -1.812429
-2.078540 -13.049433 -1.705427
-1.427590 -13.771684 -1.710337
2.960607 -62.642975 3.259747
0.122541 -1.429390 0.285007
-0.644234 -14.651788 -1.714493
0.145648 -15.719187 -1.693708
-0.688500 -10.736856 -1.770178
-0.122779 -11.298271 -1.774213
1.170493 -17.037600 -1.706023
2.238846 -18.191160 -1.697696
0.597570 -12.025043 -1.785668
1.295958 -12.697989 -1.795138
-5.471387 -34.262451 -1.212908
-3.733339 -36.443993 -0.933698
-3.165923 -17.561205 -1.480256
-2.458553 -19.805401 -1.473824
-1.986675 -42.709930 -0.749481
0.547612 -53.717178 -0.501610
-1.477281 -22.441984 -1.513972
-0.265011 -25.949982 -1.531181
0.110247 -1.265489 0.200556
2.473792 -20.208935 0.303707
1.352612 -28.629097 -1.450322
2.531682 -24.722237 -1.057352
-5.840502 -35.989140 2.597830
-4.108795 -39.434513 3.252401
-6.549083 -36.134602 0.741692
-4.427928 -35.571243 1.021420
-2.193208 -46.910801 4.169958
0.546008 -57.858818 5.634624
-2.705386 -40.070740 1.472161
-0.542899 -48.734066 2.210468
-0.782535 -4.837705 -1.841932
-0.537526 -4.940008 -1.844393
0.521448 -9.847446 -1.818156
1.089246 -10.376733 -1.835136
-0.198701 -5.059356 -1.835142
0.067562 -5.199454 -1.830136
-0.272366 -4.418963 -1.844064
-0.040297 -4.523885 -1.846086
0.428625 -5.329467 -1.833183
0.719056 -5.463678 -1.829604
0.275944 -4.598289 -1.835437
0.533395 -4.722281 -1.832955
-1.058016 -6.661207 -1.817067
-0.744822 -6.961345 -1.824525
-1.031297 -5.615324 -1.819204
-0.744142 -5.749972 -1.823313
-0.294648 -7.150799 -1.819625
0.087036 -7.488463 -1.835866
-0.372552 -5.934324 -1.826405
-0.056415 -6.167998 -1.838900
0.584308 -7.790571 -1.839945
1.033946 -8.124708 -1.850414
0.353425 -6.344748 -1.836824
0.701484 -6.523161 -1.833087
-1.669213 -10.486067 -1.775491
-1.153698 -11.123299 -1.773484
-1.485915 -8.245642 -1.808462
-1.082155 -8.571134 -1.801392
-0.495789 -11.660727 -1.774458
0.108444 -12.474413 -1.775020
-0.568080 -8.933690 -1.805081
-0.093078 -9.381447 -1.813658
-2.118882 -13.038933 -1.704851
-1.470020 -13.759253 -1.709233
2.733101 -61.949471 3.225477
0.118050 -1.429767 0.285007
-0.689485 -14.633846 -1.712403
0.096173 -15.707653 -1.692260
-0.722090 -10.732678 -1.769813
-0.158134 -11.286015 -1.772124
1.118487 -17.064993 -1.708707
2.181927 -18.200079 -1.697904
0.560053 -12.032773 -1.786655
1.253085 -12.672514 -1.790458
-5.549299 -34.063667 -1.205370
-3.814651 -36.115974 -0.923785
-3.215642 -17.521805 -1.477420
-2.516773 -19.765944 -1.471129
-2.098451 -42.258152 -0.739494
0.373686 -53.032703 -0.492555
-1.544008 -22.383524 -1.509838
-0.345571 -25.871202 -1.525954
5.970337 -93.799026 -0.265287
2.411490 -20.226534 0.303755
1.259995 -28.571367 -1.446734
2.454402 -24.734041 -1.057556
-5.959753 -36.008015 2.600321
-4.197748 -39.094246 3.227084
-6.672038 -36.164974 0.742451
-4.543934 -35.590878 1.022195
-2.317570 -46.447884 4.131390
0.359446 -57.149387 5.567863
-2.805941 -39.707123 1.460930
-0.680034 -47.571209 2.162664
-0.798662 -4.840693 -1.844214
-0.553435 -4.941980 -1.845897
0.490694 -9.852955 -1.818939
1.055622 -10.370333 -1.833268
-0.214152 -5.049420 -1.831458
0.051227 -5.199641 -1.830136
-0.285093 -4.401754 -1.836584
-0.054336 -4.496350 -1.833837
0.412015 -5.332655 -1.833884
0.701391 -5.462183 -1.828241
0.261498 -4.599133 -1.835437
0.517924 -4.718443 -1.830621
-1.079566 -6.661636 -1.818191
-0.767095 -6.962797 -1.825614
-1.050355 -5.619479 -1.821830
-0.761000 -5.738224 -1.820070
-0.317111 -7.149838 -1.819625
0.063533 -7.490632 -1.836380
-0.390128 -5.917988 -1.821327
-0.075731 -6.160182 -1.836432
0.559963 -7.794302 -1.840439
1.007190 -8.118281 -1.848037
0.333122 -6.338204 -1.834425
0.681400 -6.529138 -1.834249
-1.701507 -10.476888 -1.774778
-1.188636 -11.119619 -1.773484
-1.510025 -8.231362 -1.806183
-1.107119 -8.552208 -1.797863
-0.531946 -11.649256 -1.772834
0.069209 -12.468760 -1.774107
-0.596007 -8.929912 -1.804654
-0.122630 -9.388938 -1.815298
-2.157543 -13.018548 -1.702832
-1.512388 -13.746690 -1.708129
2.506575 -61.171337 3.187118
0.113558 -1.430131 0.285007
-0.734426 -14.611809 -1.709791
0.046834 -15.709866 -1.692502
-0.755662 -10.728395 -1.769449
-0.193473 -11.277585 -1.770732
1.062817 -17.034700 -1.704904
2.124038 -18.200920 -1.697281
0.521597 -12.018704 -1.784024
1.213843 -12.682288 -1.791394
-5.986264 -36.023029 -1.287550
-3.894372 -35.791786 -0.913996
-3.268463 -17.499876 -1.476285
-2.574517 -19.724339 -1.468264
-2.215946 -41.965828 -0.733089
0.204342 -52.411682 -0.484344
-1.611843 -22.344753 -1.507236
-0.425981 -25.814123 -1.522201
0.102294 -1.266157 0.200556
2.349565 -20.247915 0.303822
1.173025 -28.645012 -1.450785
2.379388 -24.769464 -1.058982
-6.082185 -36.044212 2.603992
-4.286351 -38.769665 3.202994
-6.795252 -36.194931 0.743210
-4.661660 -35.622032 1.023242
-2.438945 -45.982666 4.092653
0.177434 -56.465260 5.503535
-2.903799 -39.337292 1.449508
-0.820606 -47.043365 2.141025
-0.814182 -4.839983 -1.844974
-0.569971 -4.949428 -1.849658
0.459392 -9.846609 -1.817374
1.023235 -10.375553 -1.833642
-0.230768 -5.063578 -1.837351
0.035066 -5.214709 -1.835879
-0.299858 -4.413536 -1.842402
-0.068634 -4.514414 -1.842003
0.395260 -5.333924 -1.833884
0.683500 -5.458765 -1.826198
0.246696 -4.592609 -1.832236
0.503098 -4.720047 -1.830621
-1.103051 -6.673351 -1.822689
-0.789385 -6.964180 -1.826704
-1.069088 -5.621714 -1.823799
-0.780994 -5.750812 -1.825258
-0.339276 -7.143031 -1.818028
0.040085 -7.500459 -1.838951
-0.410108 -5.935649 -1.827674
-0.095126 -6.163718 -1.837666
0.535474 -7.796023 -1.840439
0.982398 -8.127189 -1.849463
0.313381 -6.343032 -1.835625
0.660685 -6.529344 -1.833668
-1.730823 -10.450143 -1.770857
-1.223564 -11.115830 -1.773484
-1.537331 -8.234231 -1.808007
-1.135987 -8.564166 -1.801392
-0.567837 -11.633732 -1.770561
0.030010 -12.462988 -1.773194
-0.624200 -8.929944 -1.805081
-0.151732 -9.359146 -1.809151
-2.195764 -12.996101 -1.700526
-1.556006 -13.745807 -1.708681
2.284070 -60.368435 3.147590
0.109064 -1.430481 0.285007
-0.779890 -14.601508 -1.708745
-0.002515 -15.713905 -1.692984
-0.789065 -10.722049 -1.768720
-0.228938 -11.278892 -1.771080
1.009181 -17.035971 -1.704681
2.062077 -18.166002 -1.692921
0.483836 -12.020284 -1.784024
1.172133 -12.666371 -1.788274
-6.103093 -36.025715 -1.288451
-3.974968 -35.493271 -0.905018
-3.318182 -17.462147 -1.473638
-2.630979 -19.674665 -1.464726
-2.345405 -41.916740 -0.732148
0.038820 -51.724129 -0.475263
-1.677169 -22.275953 -1.502337
-0.504958 -25.698931 -1.514561
0.098315 -1.266472 0.200556
0.135211 -1.413769 0.213030
1.079125 -28.542805 -1.444651
3.048298 -32.725437 -1.466288
-6.203204 -36.070156 2.607008
-4.398048 -38.666840 3.196089
-6.917214 -36.216614 0.743852
-4.778833 -35.646847 1.024153
-2.558548 -45.537045 4.055601
-0.000268 -55.796474 5.440702
-2.999206 -38.965252 1.438024
-0.957709 -46.507107 2.119057
-0.828094 -4.830115 -1.841932
-0.585725 -4.949454 -1.850409
0.428776 -9.855844 -1.818939
0.989867 -10.370893 -1.832148
-0.245975 -5.049831 -1.832195
0.018667 -5.212927 -1.835161
-0.312465 -4.396248 -1.834922
-0.082839 -4.516001 -1.842819
0.377883 -5.325795 -1.830379
0.668713 -5.479540 -1.833010
0.232348 -4.595192 -1.833036
0.489863 -4.736256 -1.836846
-1.121728 -6.656613 -1.818753
-0.810182 -6.952104 -1.823979
-1.084908 -5.609062 -1.820517
-0.796032 -5.725829 -1.817475
-0.361924 -7.145779 -1.819093
0.016412 -7.481219 -1.833810
-0.426580 -5.905965 -1.818154
-0.114517 -6.165290 -1.838283
0.510858 -7.795732 -1.839945
0.955695 -8.120591 -1.847086
0.293452 -6.343986 -1.835625
0.639392 -6.523772 -1.831343
-1.758326 -10.413619 -1.765154
-1.258045 -11.108015 -1.772807
-1.563192 -8.229361 -1.808007
-1.162887 -8.560555 -1.801392
-0.604383 -11.631889 -1.770561
-0.009147 -12.461042 -1.772890
-0.651808 -8.922094 -1.803800
-0.181426 -9.376240 -1.812839
-2.234542 -12.977439 -1.698797
-1.595801 -13.711330 -1.704541
2.064999 -59.516838 3.105726
0.104570 -1.430817 0.285007
-0.824948 -14.585130 -1.706917
-0.051865 -15.703892 -1.691778
-0.823521 -10.729318 -1.770542
-0.264203 -11.270240 -1.769688
0.956198 -17.048977 -1.705799
2.005660 -18.178320 -1.693544
0.445865 -12.015829 -1.783037
1.134135 -12.689664 -1.791394
-6.032924 -34.949039 -1.244453
-4.089860 -35.510403 -0.905953
-3.367312 -17.422319 -1.470802
-2.685277 -19.611008 -1.460009
-2.457525 -41.581825 -0.724803
-0.122528 -51.118042 -0.467264
-1.744134 -22.232803 -1.499428
-0.585298 -25.679264 -1.513355
3.572276 -65.774269 -0.124017
0.130769 -1.414186 0.213030
0.992078 -28.623880 -1.449165
2.946559 -32.746788 -1.466900
-6.324788 -36.097660 2.610155
-4.527097 -38.718197 3.201152
-7.042054 -36.251625 0.744699
-4.897827 -35.683170 1.025337
-2.674895 -45.083172 4.017875
-0.173739 -55.119183 5.377121
-3.093909 -38.612923 1.427171
-1.091722 -45.982452 2.097583
-0.842608 -4.823848 -1.840412
-0.600201 -4.938385 -1.846650
0.397516 -9.849301 -1.817374
0.956726 -10.368085 -1.831027
-0.262790 -5.065742 -1.838825
0.002362 -5.226027 -1.840186
-0.328019 -4.417004 -1.844895
-0.096882 -4.506592 -1.838737
0.361386 -5.330694 -1.831781
0.651035 -5.477881 -1.831647
0.218217 -4.603224 -1.836237
0.475757 -4.745100 -1.839958
-1.140641 -6.641713 -1.815380
-0.834013 -6.966728 -1.828883
-1.102150 -5.603773 -1.819860
-0.812984 -5.715803 -1.814881
-0.383708 -7.133060 -1.815898
-0.007081 -7.485099 -1.834838
-0.447847 -5.938627 -1.829578
-0.133685 -6.153488 -1.834580
0.485909 -7.789561 -1.837965
0.931996 -8.138989 -1.850889
0.273669 -6.348689 -1.836824
0.618894 -6.525748 -1.831343
-1.789678 -10.400290 -1.763728
-1.291818 -11.094215 -1.771115
-1.590914 -8.233963 -1.810286
-1.189775 -8.556860 -1.801392
-0.639905 -11.612203 -1.767638
-0.048269 -12.447115 -1.770760
-0.679217 -8.912211 -1.802092
-0.210225 -9.342351 -1.805872
-2.267348 -12.925536 -1.692166
-1.637712 -13.696412 -1.703161
1.850923 -58.652481 3.063278
0.100074 -1.431138 0.285007
-0.870157 -14.572572 -1.705610
-0.101134 -15.689754 -1.690089
-0.856901 -10.722756 -1.769813
-0.299465 -11.263448 -1.768643
0.896510 -16.932808 -1.692378
1.945320 -18.154871 -1.690430
0.408051 -12.015200 -1.782708
1.090615 -12.651838 -1.784842
-6.165977 -35.061760 -1.249942
-4.202802 -35.509289 -0.906327
-3.420870 -17.405794 -1.470235
-2.742765 -19.572866 -1.457482
-2.563177 -41.176792 -0.715891
-0.279933 -50.483475 -0.458895
-1.808708 -22.163622 -1.494529
-0.664528 -25.619446 -1.509468
3.317658 -64.840393 -0.119264
0.126326 -1.414590 0.213030
0.906057 -28.754580 -1.456572
2.843143 -32.749912 -1.466594
-6.449074 -36.138512 2.614220
-4.652970 -38.739422 3.203914
-7.167186 -36.286205 0.745546
-5.015162 -35.705227 1.026202
-2.788797 -44.634991 3.980654
-0.343158 -54.475204 5.316719
-3.185932 -38.254410 1.416128
-1.222612 -45.463417 2.076355
-0.857091 -4.817538 -1.838891
-0.616812 -4.945676 -1.850409
0.366435 -9.846581 -1.816591
0.923790 -10.367127 -1.830280
-0.278145 -5.055610 -1.835142
-0.014125 -5.196140 -1.828701
-0.339930 -4.392385 -1.834090
-0.111212 -4.515391 -1.842819
0.344748 -5.333673 -1.832482
0.631798 -5.463097 -1.825517
0.203825 -4.605720 -1.837038
0.460095 -4.739241 -1.836846
-1.166911 -6.668327 -1.824376
-0.854530 -6.952608 -1.825614
-1.121644 -5.609537 -1.823143
-0.832256 -5.722588 -1.818124
-0.405999 -7.129895 -1.815366
-0.030595 -7.483108 -1.834324
-0.463679 -5.903168 -1.818154
-0.152977 -6.151135 -1.833963
0.461326 -7.789114 -1.837471
0.905759 -8.136086 -1.849463
0.253654 -6.347610 -1.836224
0.598207 -6.525755 -1.830761
-1.826134 -10.415929 -1.767649
-1.324370 -11.070525 -1.767730
-1.615249 -8.221286 -1.808462
-1.215307 -8.543419 -1.799186
-0.676503 -11.612103 -1.767963
-0.087412 -12.454809 -1.771977
-0.708815 -8.929507 -1.806362
-0.239753 -9.349473 -1.807511
-2.272995 -12.840138 -1.680058
-1.657346 -13.678087 -1.700953
1.735377 -57.862606 3.024627
0.097826 -1.431293 0.285007
-0.893295 -14.575145 -1.706133
-0.125790 -15.691563 -1.690330
-0.874401 -10.729238 -1.771271
-0.316953 -11.255087 -1.767251
0.871495 -16.965956 -1.695957
1.915108 -18.142076 -1.688769
0.388880 -12.005965 -1.781064
1.073301 -12.683058 -1.789522
-6.172301 -34.778572 -1.238553
-4.265434 -35.560211 -0.908135
