ply
format ascii 1.0
element vertex 1626
property float x
property float y
property float z
end_header
-3.906713 2.113800 -1.809339
-4.826449 2.078296 -1.798829
-5.055615 1.881012 -1.787371
-4.126372 1.877065 -1.803424
-4.342216 1.707066 -1.796383
-5.489782 4.126189 -1.853052
-5.858046 3.952060 -1.843049
-4.524370 3.574335 -1.838900
-4.724126 3.341715 -1.819421
-6.133569 3.578122 -1.804185
-6.565807 3.379714 -1.808107
-5.012159 3.070173 -1.803556
-5.335794 2.888429 -1.806190
-7.007749 3.062574 -1.797887
-7.431184 2.801082 -1.789565
-5.646365 2.597808 -1.793034
-5.929426 2.367808 -1.779604
-9.555282 7.190069 -2.018242
-10.079443 6.750418 -1.936303
-6.918988 5.429827 -1.906010
-7.385196 5.188180 -1.888724
-10.798002 6.320766 -1.912814
-11.677791 6.052094 -1.879396
-7.867176 4.829227 -1.866142
-8.395663 4.551954 -1.848901
-12.368937 9.370481 -2.040987
-13.356484 9.003333 -2.025512
-1.318846 0.597393 0.273862
-1.318819 0.564702 0.285007
-14.453345 8.551269 -1.994831
-15.561830 8.114531 -1.916193
-9.760080 6.041547 -1.903560
-10.372391 5.677954 -1.867148
-16.915096 7.586620 -1.870429
-18.283117 7.039644 -1.829530
-11.188577 5.274105 -1.840594
-11.904833 4.870800 -1.810737
-22.964590 17.395857 -0.971531
-22.864697 15.389007 -0.650698
-19.112167 15.105698 -2.099125
-22.701664 15.975880 -2.133434
-45.877998 27.294714 -0.987529
-51.172321 26.631840 -0.553986
-26.251724 16.317511 -2.160350
-32.018932 17.492489 -2.238731
-1.168423 0.498401 0.200556
-1.316089 0.533791 0.213030
-36.012051 17.091785 -2.099631
-1.347705 0.577326 0.135727
-1.095183 0.802775 0.291486
-1.152064 0.808166 0.309900
-26.162258 20.697884 0.692584
-44.996143 31.695698 1.458565
-1.187269 0.677166 0.316699
-1.270110 0.690876 0.336462
-45.536301 28.401012 1.898470
-46.672348 25.568966 2.394934
-3.874998 2.948376 -1.829005
-4.080925 2.782959 -1.832361
-9.013623 4.212743 -1.835767
-9.587826 3.891030 -1.818700
-4.301492 2.516043 -1.803466
-4.556057 2.355536 -1.802860
-3.724298 2.291456 -1.819130
-3.909701 2.131250 -1.814239
-4.818182 2.092695 -1.798128
-5.056735 1.899498 -1.790096
-4.123778 1.891568 -1.805025
-4.331683 1.718690 -1.794048
-5.472212 4.139925 -1.851365
-5.845601 3.970445 -1.843049
-4.516064 3.590897 -1.840213
-4.719789 3.360904 -1.822015
-6.123955 3.598358 -1.804717
-6.555156 3.400326 -1.808107
-5.004098 3.086908 -1.804190
-5.304931 2.893430 -1.798166
-6.999863 3.085364 -1.798382
-7.413258 2.820991 -1.787188
-5.643357 2.617965 -1.794833
-5.937958 2.392798 -1.784836
-9.551439 7.234356 -2.022519
-10.072915 6.791940 -1.939350
-6.915615 5.462443 -1.910112
-7.378435 5.218089 -1.891370
-10.788278 6.360696 -1.914763
-11.658718 6.088755 -1.879396
-7.850307 4.852890 -1.865715
-8.391644 4.583912 -1.851360
-12.312720 9.388844 -2.036086
-13.324853 9.043027 -2.024960
-1.316963 0.601533 0.273862
-1.317038 0.568842 0.285007
-14.511501 8.647514 -2.007895
-15.555610 8.173507 -1.918847
-9.747719 6.076354 -1.905018
-10.363134 5.715246 -1.868888
-16.920135 7.652865 -1.874007
-18.286882 7.107099 -1.832437
-11.187973 5.316881 -1.843554
-11.896782 4.911174 -1.811985
-22.765320 17.357521 -0.964075
-22.844393 15.479796 -0.651758
-19.128452 15.216550 -2.106878
-22.675772 16.064371 -2.135961
-45.759449 27.419159 -0.986678
-50.627827 26.551182 -0.547122
-26.154720 16.371294 -2.156216
-32.086243 17.660254 -2.248114
-1.166852 0.502069 0.200556
-1.314406 0.537922 0.213030
-36.064419 17.255745 -2.106460
-41.076061 16.919081 -2.055898
-1.092656 0.806212 0.291486
-1.149520 0.811781 0.309900
-26.184664 20.849796 0.694219
-44.955082 31.878500 1.460205
-1.185136 0.680892 0.316699
-1.267934 0.694862 0.336462
-45.506081 28.581163 1.900679
-46.609295 25.725107 2.395756
-3.870104 2.963932 -1.831286
-4.075228 2.797847 -1.833865
-8.989713 4.235994 -1.833419
-9.581014 3.923349 -1.819820
-4.296762 2.531447 -1.804939
-4.548635 2.369837 -1.802860
-3.707838 2.297340 -1.814143
-3.888538 2.135696 -1.806889
-4.813296 2.108581 -1.798829
-5.045459 1.913399 -1.788052
-4.122793 1.906850 -1.807425
-4.331404 1.734315 -1.796383
-5.463748 4.160602 -1.853052
-5.842654 3.995272 -1.846318
-4.491535 3.594383 -1.834304
-4.710750 3.376809 -1.822664
-6.122554 3.623506 -1.807912
-6.553021 3.425348 -1.810678
-4.999196 3.105636 -1.806094
-5.314198 2.920080 -1.804955
-6.981296 3.103372 -1.795908
-7.427964 2.853243 -1.793368
-5.642005 2.638943 -1.797233
-5.926861 2.410012 -1.783674
-9.533352 7.267913 -2.023589
-10.066228 6.833481 -1.942396
-6.896899 5.482923 -1.909656
-7.362006 5.241241 -1.891370
-10.776716 6.399611 -1.916386
-11.648289 6.129934 -1.880918
-7.844958 4.883750 -1.868277
-8.377202 4.610251 -1.851360
-12.275322 9.421441 -2.034645
-13.288190 9.079270 -2.023580
-1.315067 0.605667 0.273862
-1.315245 0.572977 0.285007
-14.448592 8.671578 -2.002408
-15.844179 8.388162 -1.962041
-9.731907 6.109046 -1.905747
-10.362365 5.757302 -1.872369
-16.903238 7.709293 -1.874902
-18.275579 7.168858 -1.833682
-11.174768 5.353715 -1.844212
-11.881295 4.948526 -1.811985
-22.891273 17.567814 -0.973416
-22.808865 15.560488 -0.652257
-19.091421 15.285291 -2.108202
-22.660912 16.160957 -2.139668
-45.632004 27.537968 -0.985603
-50.061344 26.455240 -0.539915
-26.175657 16.499163 -2.162799
-32.103928 17.801561 -2.253743
-1.165269 0.505732 0.200556
-1.312710 0.542049 0.213030
-36.141262 17.432367 -2.114909
-1.344051 0.585782 0.135727
-1.090118 0.809640 0.291486
-1.146964 0.815388 0.309900
-26.168936 20.972013 0.695153
-44.913319 32.061367 1.461844
-1.182991 0.684612 0.316699
-1.265744 0.698842 0.336462
-45.473492 28.760345 1.902824
-46.589390 25.905367 2.398636
-3.866610 2.980624 -1.834328
-4.060298 2.806453 -1.830857
-8.997592 4.274369 -1.838115
-9.575913 3.956413 -1.821315
-4.285599 2.543020 -1.803466
-4.536196 2.381537 -1.800706
-3.700602 2.308977 -1.814143
-3.888220 2.151401 -1.810156
-4.808357 2.124457 -1.799530
-5.057015 1.935879 -1.794864
-4.106842 1.915088 -1.802624
-4.324223 1.747234 -1.795605
-5.461282 4.185960 -1.856988
-5.817361 4.004924 -1.841960
-4.489016 3.615626 -1.838243
-4.697038 3.389392 -1.821367
-6.107836 3.640737 -1.806847
-6.552507 3.451287 -1.813762
-4.991018 3.122339 -1.806729
-5.304998 2.936760 -1.804955
-6.983870 3.130880 -1.799371
-7.400827 2.869602 -1.788614
-5.625074 2.652550 -1.794233
-5.919261 2.428621 -1.783674
-9.507355 7.295425 -2.022876
-10.085453 6.892791 -1.950859
-6.884192 5.508228 -1.911024
-7.358214 5.273399 -1.894899
-10.766706 6.439534 -1.918335
-11.642959 6.173880 -1.883352
-7.841143 4.915669 -1.871266
-8.369535 4.640325 -1.852999
-12.253484 9.466022 -2.036086
-13.259601 9.120973 -2.023580
-1.313157 0.609796 0.273862
-1.313438 0.577106 0.285007
-14.394151 8.700474 -1.998227
-15.766910 8.410871 -1.955043
-9.729265 6.150135 -1.909391
-10.351111 5.793662 -1.873761
-16.924047 7.783182 -1.880494
-18.273321 7.234264 -1.835966
-11.166767 5.393105 -1.845856
-11.882095 4.992682 -1.814793
-22.858095 17.656767 -0.974563
-22.807688 15.664844 -0.654065
-19.151737 15.432760 -2.121437
-15.038224 10.806871 -1.352180
-45.681919 27.764339 -0.989186
-49.531288 26.374790 -0.533236
-26.073215 16.549215 -2.158206
-32.119297 17.942181 -2.259238
-1.163674 0.509390 0.200556
-1.311000 0.546170 0.213030
-36.181461 17.592159 -2.121043
-1.342204 0.590002 0.135727
-1.087569 0.813061 0.291486
-1.144397 0.818987 0.309900
-26.165142 21.104389 0.696321
-44.882210 32.252453 1.463803
-1.180834 0.688325 0.316699
-1.263543 0.702815 0.336462
-45.325603 28.866526 1.900679
-46.586254 26.095514 2.402339
-3.858682 2.993899 -1.835089
-4.051462 2.819195 -1.830857
-8.982353 4.301764 -1.837723
-9.570699 3.989483 -1.822809
-4.287135 2.562244 -1.807886
-4.527037 2.394912 -1.799988
-3.697933 2.323523 -1.816637
-3.883042 2.164485 -1.810972
-4.805073 2.141094 -1.800932
-5.045638 1.949749 -1.792820
-4.087571 1.921666 -1.796221
-4.327262 1.764241 -1.799495
-5.443559 4.199562 -1.855301
-5.815850 4.030813 -1.845774
-4.477634 3.629711 -1.838243
-4.701725 3.415182 -1.827853
-6.111211 3.668892 -1.811639
-6.545054 3.473656 -1.814790
-4.973183 3.132914 -1.803556
-5.284087 2.946976 -1.800635
-6.974000 3.152806 -1.799371
-7.400833 2.896349 -1.790991
-5.618433 2.671035 -1.794833
-5.909830 2.446480 -1.783092
-9.498383 7.336114 -2.026084
-10.096274 6.946719 -1.957629
-6.875931 5.537183 -1.913759
-7.343196 5.297626 -1.895340
-10.756554 6.479458 -1.920284
-11.637468 6.217852 -1.885786
-7.833908 4.945518 -1.873401
-8.353204 4.665646 -1.852589
-12.209641 9.493515 -2.033492
-13.239032 9.168210 -2.024960
-1.311235 0.613918 0.273862
-1.311618 0.581230 0.285007
-14.432739 8.785964 -2.008417
-15.791162 8.487549 -1.962041
-9.714866 6.183850 -1.910484
-10.348317 5.834825 -1.876894
-16.915728 7.843860 -1.882507
-18.296711 7.310027 -1.841157
-11.155084 5.430761 -1.846843
-11.862710 5.028452 -1.814169
-22.673239 17.627796 -0.967844
-22.822527 15.780700 -0.656496
-19.600674 15.897215 -2.182322
-14.962173 10.823751 -1.347799
-45.655846 27.945326 -0.990798
-49.012806 26.296938 -0.526715
-26.160482 16.720299 -2.170914
-32.163681 18.099691 -2.267012
-1.162068 0.513044 0.200556
-1.309278 0.550286 0.213030
-36.233555 17.758533 -2.127988
-1.340344 0.594215 0.135727
-1.085009 0.816474 0.291486
-1.141818 0.822579 0.309900
-26.157675 21.234426 0.697430
-44.832523 32.430775 1.465260
-1.178666 0.692032 0.316699
-1.261328 0.706781 0.336462
-45.416367 29.125412 1.907494
-46.559742 26.273144 2.404972
-3.839095 2.997983 -1.829765
-4.047155 2.835075 -1.833113
-8.974087 4.332534 -1.838897
-9.563556 4.021803 -1.823930
-4.277476 2.574733 -1.807149
-4.519490 2.409123 -1.799988
-3.689084 2.334147 -1.815806
-3.881013 2.179327 -1.813422
-4.801733 2.157732 -1.802335
-5.025446 1.960191 -1.787371
-4.091424 1.939265 -1.801023
-4.299497 1.768838 -1.789380
-5.434874 4.220192 -1.856988
-5.801576 4.047969 -1.845229
-4.466209 3.643760 -1.838243
-4.669521 3.414398 -1.818772
-6.094716 3.685063 -1.810042
-6.540938 3.497823 -1.816846
-4.972898 3.154661 -1.807364
-5.294753 2.974659 -1.808041
-6.965820 3.175510 -1.799866
-7.395315 2.921000 -1.791942
-5.613449 2.690337 -1.796033
-5.896808 2.462843 -1.781348
-9.469083 7.361073 -2.024658
-10.197728 7.063445 -1.983355
-6.855483 5.556296 -1.912847
-7.328099 5.321811 -1.895781
-10.741199 6.516301 -1.921258
-11.644011 6.268385 -1.890351
-7.821625 4.972210 -1.874255
-8.343630 4.694731 -1.853819
-12.176646 9.529379 -2.032915
-13.203658 9.205232 -2.023855
-1.309300 0.618034 0.273862
-1.309786 0.585347 0.285007
-14.497956 8.888404 -2.022787
-15.918174 8.620089 -1.983276
-9.703658 6.219662 -1.912307
-10.340224 5.873118 -1.878982
-16.919790 7.910468 -1.886086
-18.292116 7.374881 -1.843233
-11.150353 5.471887 -1.849145
-11.865036 5.073423 -1.817289
-22.635050 17.712496 -0.968745
-22.782692 15.859161 -0.656870
-19.715536 16.093594 -2.202554
-14.950676 10.887093 -1.350158
-45.629093 28.126410 -0.992411
-48.502361 26.219885 -0.520300
-26.312296 16.934229 -2.189591
-32.223019 18.266493 -2.275992
-1.160451 0.516692 0.200556
-1.307543 0.554397 0.213030
-36.340443 17.952850 -2.138520
-1.338471 0.598423 0.135727
-1.082439 0.819878 0.291486
-1.139228 0.826162 0.309900
-26.129534 21.348156 0.698160
-44.620480 32.491467 1.462163
-1.176486 0.695731 0.316699
-1.259102 0.710740 0.336462
-45.385086 29.307007 1.909765
-46.569080 26.471569 2.409332
-3.835451 3.014631 -1.832807
-4.036709 2.846715 -1.832361
-8.967478 4.364155 -1.840463
-9.545444 4.049538 -1.822809
-4.272537 2.590102 -1.808622
-4.510251 2.422433 -1.799270
-3.684790 2.347697 -1.817468
-3.880526 2.195067 -1.816688
-4.788122 2.169679 -1.799530
-5.035040 1.982092 -1.793502
-4.082014 1.950509 -1.799422
-4.331441 1.797665 -1.806499
-5.405004 4.224180 -1.850803
-5.793567 4.069476 -1.846863
-4.459104 3.661388 -1.840213
-4.669473 3.436853 -1.823313
-6.088038 3.707217 -1.811639
-6.528214 3.517442 -1.816332
-4.962964 3.170267 -1.807364
-5.270446 2.982908 -1.802487
-6.964601 3.201453 -1.802340
-7.387910 2.944931 -1.792417
-5.606684 2.708795 -1.796633
-5.908474 2.489450 -1.787743
-9.438178 7.384704 -2.022876
-10.224067 7.129168 -1.993510
-6.850038 5.587687 -1.916494
-7.317657 5.349393 -1.897545
-10.720675 6.550011 -1.921258
-11.622524 6.303995 -1.890047
-7.814180 5.002047 -1.876390
-8.337371 4.725723 -1.855868
-12.146647 9.567589 -2.032915
-13.186034 9.254619 -2.025787
-1.307352 0.622145 0.273862
-1.307941 0.589460 0.285007
-14.431190 8.909892 -2.016778
-15.993922 8.726014 -1.997513
-9.697269 6.258680 -1.915222
-10.333701 5.912397 -1.881419
-17.004446 8.015433 -1.899731
-18.300194 7.445018 -1.846762
-11.145473 5.513041 -1.851447
-11.863562 5.116907 -1.819785
-22.602819 17.802095 -0.969974
-22.775343 15.960450 -0.658492
-19.661802 16.152927 -2.202176
-14.946967 10.956355 -1.353359
-45.599934 28.306570 -0.993978
-48.008682 26.148504 -0.514123
-26.376041 17.092829 -2.200308
-32.260811 18.422001 -2.283364
-1.158822 0.520335 0.200556
-1.305794 0.558502 0.213030
-36.451813 18.150705 -2.149400
-41.805393 17.991964 -2.111435
-1.079857 0.823275 0.291486
-1.136627 0.829737 0.309900
-26.124077 21.480999 0.699328
-44.234249 32.423588 1.454148
-1.174295 0.699424 0.316699
-1.256863 0.714693 0.336462
-45.227448 29.406929 1.907305
-46.544662 26.651485 2.412130
-3.825960 3.026667 -1.832807
-4.032296 2.862578 -1.834617
-8.966031 4.398387 -1.843202
-9.550756 4.087193 -1.826544
-4.265960 2.604490 -1.809359
-4.512496 2.441873 -1.803577
-3.677396 2.359263 -1.817468
-3.862469 2.200986 -1.810972
-4.782981 2.185499 -1.800231
-5.046298 2.004761 -1.800313
-4.067632 1.959300 -1.795420
-4.298519 1.800031 -1.794048
-5.412762 4.257834 -1.858674
-5.779178 4.086553 -1.846318
-4.449029 3.676590 -1.840869
-4.655602 3.449268 -1.822015
-6.071442 3.723285 -1.810042
-6.517130 3.537935 -1.816332
-4.949797 3.183778 -1.806094
-5.279272 3.009738 -1.809276
-6.947486 3.220036 -1.800361
-7.376816 2.967410 -1.791942
-5.599858 2.727239 -1.797233
-5.897095 2.506518 -1.786580
-9.434994 7.430193 -2.027510
-10.217776 7.172547 -1.996895
-6.844460 5.619103 -1.920140
-7.305538 5.375813 -1.898868
-10.715152 6.593001 -1.924181
-11.618287 6.348979 -1.892785
-7.795146 5.024446 -1.875536
-8.330994 4.756724 -1.857916
-12.121177 9.609395 -2.033780
-13.176331 9.309680 -2.029099
-1.305391 0.626249 0.273862
-1.306082 0.593566 0.285007
-14.374529 8.937340 -2.012336
-15.943796 8.763816 -1.994376
-9.679205 6.290187 -1.915586
-10.328745 5.952667 -1.884203
-16.902044 8.032022 -1.890112
-18.293287 7.509246 -1.848631
-11.136915 5.552446 -1.853092
-11.849242 5.154934 -1.820097
-19.867744 15.745373 -0.829704
-22.762686 16.058388 -0.659926
-19.931395 16.480104 -2.241694
-15.023239 11.084743 -1.364985
-45.571808 28.487867 -0.995591
-47.500160 26.065615 -0.507708
-26.295507 17.158144 -2.197859
-29.231590 16.816971 -2.053232
-1.157181 0.523973 0.200556
-1.304034 0.562601 0.213030
-36.589062 18.362867 -2.162016
-41.898945 18.188337 -2.119792
-1.077266 0.826663 0.291486
-1.134015 0.833303 0.309900
-26.101114 21.599966 0.700175
-43.866604 32.366631 1.446634
-1.172091 0.703110 0.316699
-1.254611 0.718638 0.336462
-45.298695 29.656246 1.913488
-46.545555 26.846453 2.416161
-3.812110 3.035191 -1.830526
-4.023283 2.875231 -1.834617
-8.950415 4.425658 -1.842811
-9.543288 4.119498 -1.827665
-4.251442 2.613949 -1.806412
-4.499872 2.453381 -1.801424
-3.666922 2.368812 -1.815806
-3.869834 2.221205 -1.818321
-4.776092 2.200514 -1.800231
-5.017241 2.011616 -1.791458
-4.059813 1.971259 -1.794620
-4.280935 1.808573 -1.788601
-5.403860 4.278407 -1.860361
-5.774170 4.110239 -1.849043
-4.436011 3.689334 -1.840213
-4.656916 3.472870 -1.827204
-6.067898 3.747435 -1.812704
-6.509382 3.560234 -1.817360
-4.942946 3.201388 -1.807364
-5.258214 3.019726 -1.804955
-6.946100 3.245977 -1.802835
-7.363853 2.989119 -1.790991
-5.584425 2.741426 -1.794833
-5.889192 2.525031 -1.786580
-9.420844 7.467150 -2.029649
-10.224211 7.225026 -2.002988
-6.826775 5.640576 -1.920140
-7.296468 5.404519 -1.901074
-10.717842 6.641229 -1.928728
-11.613887 6.393996 -1.895524
-7.797320 5.060661 -1.880233
-8.316010 4.782872 -1.857916
-12.104521 9.627187 -2.033492
-13.168165 9.334938 -2.030203
-1.304406 0.628298 0.273862
-1.305148 0.595616 0.285007
-14.345347 8.950438 -2.009985
-15.968284 8.809893 -1.999685
-9.684116 6.315084 -1.918866
-10.321089 5.969865 -1.884551
-16.882236 8.055127 -1.889218
-18.316427 7.552331 -1.852575
-11.135231 5.573478 -1.854407
-11.846565 5.175901 -1.821033
-19.757027 15.708070 -0.825197
-22.784784 16.127569 -0.661734
-19.940702 16.540661 -2.246043
-14.896776 11.027847 -1.353528
-45.576111 28.590248 -0.996890
-47.050903 25.915579 -0.501557
-26.366901 17.263952 -2.206892
-32.322330 18.659506 -2.294890
-1.156357 0.525790 0.200556
-1.303148 0.564649 0.213030
-36.722385 18.502171 -2.172548
-41.950905 18.289202 -2.124275
-1.075966 0.828354 0.291486
-1.132704 0.835083 0.309900
-26.114824 21.680573 0.701080
-43.534374 32.227440 1.438664
-1.170986 0.704950 0.316699
-1.253481 0.720607 0.336462
-45.325546 29.775684 1.916265
-46.575977 26.961538 2.419617
-3.814534 3.046986 -1.834328
-4.021786 2.883691 -1.836121
-8.952225 4.444094 -1.844768
-9.533195 4.132928 -1.826918
-4.252063 2.623578 -1.808622
-4.497655 2.461333 -1.802142
-3.667759 2.377564 -1.818299
-3.855229 2.220965 -1.812605
-4.781110 2.211987 -1.803737
-5.040290 2.029906 -1.801676
-4.064925 1.981696 -1.798622
-4.296789 1.823107 -1.797161
-5.388143 4.279694 -1.856988
-5.764567 4.117077 -1.847953
-4.450442 3.713331 -1.849404
-4.637776 3.470040 -1.821367
-6.065274 3.759003 -1.813769
-6.513966 3.575999 -1.820445
-4.937912 3.209148 -1.807364
-5.251812 3.027038 -1.804338
-6.940993 3.256883 -1.802835
-7.369956 3.005047 -1.793843
-5.580112 2.750193 -1.794833
-5.879936 2.532029 -1.784836
-9.430630 7.499132 -2.034639
-10.253109 7.269495 -2.011451
-6.817906 5.651292 -1.920140
-7.294247 5.420608 -1.902838
-10.724135 6.668511 -1.931976
-11.622882 6.422709 -1.898872
-7.787727 5.071831 -1.879806
-8.313582 4.798850 -1.859146
-12.098903 9.684999 -2.038104
-13.145229 9.380853 -2.031307
-1.302426 0.632393 0.273862
-1.303271 0.599714 0.285007
-14.328900 9.002863 -2.011813
-16.027365 8.908117 -2.011750
-9.680644 6.356307 -1.922510
-10.315915 6.010164 -1.887336
-16.915913 8.136637 -1.896599
-18.314665 7.618978 -1.855066
-11.129982 5.614679 -1.856710
-11.842912 5.218644 -1.823216
-19.617163 15.697553 -0.820445
-22.758442 16.216448 -0.662669
-18.755480 15.655322 -2.105743
-14.625305 10.898692 -1.328592
-45.546906 28.771761 -0.998502
-46.552971 25.832535 -0.495274
-26.309208 17.344505 -2.206585
-32.341209 18.806047 -2.300922
-1.154700 0.529420 0.200556
-1.301368 0.568740 0.213030
-36.913239 18.744167 -2.188752
-41.975544 18.457041 -2.128861
-1.073358 0.831731 0.291486
-1.130075 0.838638 0.309900
-26.097197 21.804861 0.702043
-43.182713 32.177795 1.431560
-1.168765 0.708625 0.316699
-1.251211 0.724542 0.336462
-45.250114 29.930073 1.916959
-46.560120 27.147959 2.422908
-3.803507 3.057788 -1.833568
-4.008181 2.893081 -1.833865
-8.939971 4.473079 -1.845159
-9.534582 4.169119 -1.829906
-4.243800 2.636923 -1.808622
-4.486621 2.473665 -1.800706
-3.664824 2.392085 -1.820792
-3.860909 2.240323 -1.819138
-4.769056 2.224596 -1.801633
-5.014688 2.038034 -1.794183
-4.058680 1.994457 -1.798622
-4.299530 1.840174 -1.801052
-5.397091 4.314662 -1.865421
-5.767270 4.146343 -1.853402
-4.417135 3.708975 -1.839556
-4.638983 3.493644 -1.826556
-6.058331 3.781119 -1.815366
-6.499311 3.594587 -1.819417
-4.930970 3.226736 -1.808633
-5.245576 3.045419 -1.805572
-6.932476 3.279508 -1.803330
-7.362279 3.028919 -1.794319
-5.576561 2.770278 -1.796633
-5.870195 2.549734 -1.784255
-9.400888 7.523791 -2.033213
-10.260749 7.323364 -2.017882
-6.804593 5.676438 -1.921508
-7.280312 5.445826 -1.903720
-10.734872 6.722134 -1.938147
-11.606106 6.461109 -1.899480
-7.776647 5.099500 -1.881087
-8.301854 4.826903 -1.859965
-12.088426 9.739136 -2.041852
-13.117303 9.423256 -2.031583
-1.300432 0.636482 0.273862
-1.301380 0.603805 0.285007
-14.285479 9.038269 -2.009462
-16.009701 8.964231 -2.013198
-9.658989 6.385600 -1.922146
-10.310589 6.050487 -1.890121
-16.936731 8.212350 -1.902415
-18.318165 7.687988 -1.858181
-11.126340 5.656800 -1.859341
-11.833686 5.259018 -1.824465
-19.483774 15.691333 -0.816021
-22.751272 16.319286 -0.664352
-18.690973 15.701347 -2.103853
-14.603760 10.954133 -1.329940
-45.515320 28.952299 -1.000069
-46.108398 25.775864 -0.489783
-26.294441 17.453575 -2.210260
-32.352592 18.948856 -2.306417
-1.153031 0.533045 0.200556
-1.299575 0.572826 0.213030
-37.028301 18.949291 -2.200094
-41.990406 18.621166 -2.132937
-1.070740 0.835099 0.291486
-1.127435 0.842184 0.309900
-26.112692 21.957592 0.703649
-42.817387 32.115467 1.424046
-1.166533 0.712293 0.316699
-1.248929 0.728469 0.336462
-45.139229 30.060999 1.916328
-46.557331 27.342632 2.426857
-3.795314 3.070893 -1.834328
-3.999072 2.905659 -1.833865
-8.927623 4.502030 -1.845550
-9.535834 4.205360 -1.832895
-4.235494 2.650243 -1.808622
-4.482100 2.489544 -1.802142
-3.655776 2.402578 -1.819961
-3.842780 2.246057 -1.813422
-4.763735 2.240373 -1.802335
-5.001288 2.050958 -1.791458
-4.052394 2.007198 -1.798622
-4.280163 1.847906 -1.794827
-5.367110 4.318300 -1.859237
-5.746400 4.158828 -1.850677
-4.414085 3.730189 -1.843496
-4.624959 3.505929 -1.825258
-6.046422 3.800134 -1.815366
-6.494753 3.618727 -1.821473
-4.928704 3.247464 -1.811807
-5.237629 3.062837 -1.806190
-6.922139 3.301271 -1.803330
-7.349133 3.050556 -1.793368
-5.567830 2.787784 -1.796633
-5.872691 2.572728 -1.787743
-9.386385 7.560715 -2.035352
-10.248913 7.363591 -2.020252
-6.798628 5.707840 -1.925155
-7.272538 5.475684 -1.906366
-10.735373 6.769555 -1.942369
-11.603009 6.507174 -1.902523
-7.767098 5.128230 -1.882795
-8.291724 4.855915 -1.861195
-12.068515 9.785809 -2.043870
-13.079601 9.458630 -2.030203
-1.298426 0.640564 0.273862
-1.299477 0.607890 0.285007
-14.218588 9.058542 -2.003453
-16.040302 9.047565 -2.021402
-9.656859 6.427939 -1.926155
-10.300018 6.087841 -1.891861
-17.017912 8.318031 -1.915836
-18.315916 7.754778 -1.860672
-11.113778 5.694437 -1.860328
-11.836953 5.305018 -1.827896
-19.349072 15.683172 -0.811514
-22.746922 16.424576 -0.666160
-19.919127 16.842415 -2.262872
-19.275782 14.542908 -1.827975
-45.481369 29.131847 -1.001592
-46.002789 25.906866 -0.489413
-26.279249 17.562723 -2.213934
-32.356525 19.087877 -2.311376
-1.151350 0.536665 0.200556
-1.297769 0.576906 0.213030
-37.183235 19.176399 -2.214099
-41.977287 18.773354 -2.135484
-1.068111 0.838458 0.291486
-1.124784 0.845722 0.309900
-26.103075 22.089949 0.704788
-42.464054 32.059601 1.416850
-1.164290 0.715955 0.316699
-1.246634 0.732389 0.336462
-45.218842 30.319635 1.922953
-46.553783 27.537560 2.430807
-3.785647 3.082802 -1.834328
-3.994429 2.921467 -1.836121
-8.932642 4.539881 -1.849855
-9.520778 4.234503 -1.832521
-4.231851 2.666534 -1.810832
-4.474257 2.503613 -1.802142
-3.648210 2.414052 -1.819961
-3.851492 2.267289 -1.821588
-4.761739 2.257761 -1.804438
-5.005266 2.070924 -1.795545
-4.046068 2.019919 -1.798622
-4.284495 1.865701 -1.799495
-5.353517 4.335139 -1.859237
-5.745782 4.185881 -1.855036
-4.405212 3.746499 -1.844809
-4.619958 3.525006 -1.827853
-6.045829 3.826369 -1.819093
-6.474908 3.634413 -1.818903
-4.912175 3.258710 -1.809268
-5.223051 3.076401 -1.804338
-6.918708 3.326384 -1.805309
-7.348485 3.077352 -1.795745
-5.562444 2.806996 -1.797833
-5.859319 2.588866 -1.785999
-9.364112 7.591408 -2.035708
-10.209731 7.384234 -2.016867
-6.780663 5.729171 -1.925155
-7.264648 5.505548 -1.909013
-10.675783 6.778840 -1.934899
-11.589400 6.547470 -1.903740
-7.765566 5.162383 -1.886638
-8.289939 4.889860 -1.864473
-12.022403 9.811133 -2.040987
-13.065856 9.511303 -2.032963
-50.603794 26.277304 2.982276
-1.297561 0.611970 0.285007
-14.223408 9.124629 -2.008678
-16.008343 9.095953 -2.020920
-9.631725 6.454949 -1.925061
-10.289314 6.125186 -1.893601
-17.070087 8.410206 -1.925678
-18.306107 7.818509 -1.862333
-11.104589 5.733866 -1.861972
-11.825636 5.344606 -1.828832
-19.217712 15.676847 -0.807172
-22.740522 16.528818 -0.667906
-19.908539 16.941074 -2.268166
-22.749929 17.270477 -2.201332
-45.446743 29.311453 -1.003115
-45.980339 26.084774 -0.490311
-26.242136 17.657450 -2.215618
-32.342743 19.216917 -2.314995
-1.149659 0.540279 0.200556
-1.295950 0.580980 0.213030
-37.337112 19.404657 -2.228104
-42.009174 18.946138 -2.140580
-1.065472 0.841810 0.291486
-1.122122 0.849251 0.309900
-26.127886 22.252302 0.706598
-42.101955 31.994562 1.409382
-1.162035 0.719609 0.316699
-1.244327 0.736302 0.336462
-45.174717 30.496237 1.924910
-46.528866 27.720457 2.433769
-3.777369 3.095859 -1.835089
-3.985231 2.934001 -1.836121
-8.921823 4.569716 -1.850638
-9.516404 4.268389 -1.834389
-4.223454 2.679815 -1.810832
-4.464740 2.516748 -1.801424
-3.636084 2.422447 -1.817468
-3.828592 2.270157 -1.813422
-4.749565 2.270260 -1.802335
-4.995258 2.085205 -1.794183
-4.038070 2.031786 -1.797821
-4.270159 1.875493 -1.795605
-5.359154 4.367772 -1.866546
-5.729492 4.201645 -1.853946
-4.397710 3.764024 -1.846778
-4.605851 3.537210 -1.826556
-6.028913 3.842217 -1.817496
-6.468516 3.657571 -1.820445
-4.901913 3.274126 -1.809268
-5.219921 3.096648 -1.806807
-6.918670 3.353208 -1.808278
-7.328029 3.095920 -1.792893
-5.550204 2.822712 -1.796633
-5.854659 2.608804 -1.787162
-9.360006 7.637004 -2.040342
-10.216808 7.438252 -2.023298
-6.768551 5.755507 -1.926978
-7.244208 5.525985 -1.908131
-10.659417 6.815542 -1.935873
-11.584254 6.592614 -1.906479
-7.742829 5.182387 -1.884930
-8.277908 4.917869 -1.865293
-11.977772 9.837529 -2.038393
-13.034309 9.551141 -2.032687
-50.620087 26.488071 2.987728
-1.295632 0.616043 0.285007
-14.111472 9.115347 -1.995615
-15.793443 9.039950 -1.994859
-9.630930 6.498422 -1.929435
-10.276786 6.161520 -1.894994
-17.127184 8.505456 -1.936191
-18.321667 7.893248 -1.866900
-11.103999 5.777868 -1.865261
-11.814183 5.384181 -1.829768
-19.086576 15.669857 -0.802829
-22.715923 16.620226 -0.668966
-19.930767 17.068373 -2.277620
-22.785879 17.410755 -2.210936
-45.406395 29.487879 -1.004503
-45.938095 26.251907 -0.490918
-26.184881 17.738693 -2.215465
-28.765356 17.217171 -2.039829
-1.147956 0.543888 0.200556
-1.294118 0.585049 0.213030
-37.505829 19.642431 -2.243150
-42.040371 19.119322 -2.145675
-1.062822 0.845153 0.291486
-1.119448 0.852773 0.309900
-26.100330 22.370752 0.707415
-41.766090 31.947010 1.402641
-1.159768 0.723256 0.316699
-1.242007 0.740207 0.336462
-44.964642 30.560427 1.920556
-46.522102 27.914795 2.437636
-3.773306 3.112450 -1.838130
-3.973004 2.944316 -1.834617
-8.905683 4.596821 -1.850246
-9.504737 4.299072 -1.834762
-4.218137 2.695090 -1.812305
-4.460067 2.532590 -1.802860
-3.634475 2.437949 -1.820792
-3.815150 2.278467 -1.810156
-4.745776 2.286814 -1.803737
-4.967844 2.092231 -1.786009
-4.038187 2.047817 -1.801023
-4.262557 1.888163 -1.794827
-5.357239 4.394370 -1.871044
-5.722473 4.224174 -1.856126
-4.384436 3.776582 -1.846122
-4.596217 3.552814 -1.827204
-6.021668 3.864281 -1.819093
-6.462042 3.680728 -1.821987
-4.897879 3.293772 -1.811807
-5.231451 3.125626 -1.814830
-6.899409 3.370646 -1.805804
-7.327214 3.122708 -1.795269
-5.544697 2.841891 -1.797833
-5.841188 2.624853 -1.785418
-9.361775 7.687662 -2.046402
-10.201349 7.476123 -2.024991
-6.748960 5.775474 -1.926522
-7.242316 5.560553 -1.912542
-10.637951 6.848999 -1.935873
-11.573785 6.634856 -1.908305
-7.731359 5.209977 -1.886211
-8.277560 4.952858 -1.868981
-11.946810 9.875108 -2.038393
-13.017008 9.601424 -2.034895
-50.427094 26.589148 2.981692
-1.293690 0.620111 0.285007
-14.140887 9.197562 -2.004759
-15.768410 9.091499 -1.995341
-9.608843 6.527536 -1.929070
-10.274261 6.203918 -1.898474
-16.892584 8.454856 -1.910020
-18.316860 7.959460 -1.869184
-11.101501 5.821000 -1.868221
-11.806194 5.425374 -1.831328
-18.957222 15.663467 -0.798569
-22.715137 16.729391 -0.670961
-19.920748 17.168638 -2.283104
-19.596300 15.075849 -1.876835
-45.383797 29.676373 -1.006385
-45.936890 26.442944 -0.492159
-24.495678 16.704899 -2.063592
-28.523048 17.194273 -2.025086
-1.146241 0.547492 0.200556
-1.292274 0.589111 0.213030
-37.602814 19.844126 -2.253567
-42.138096 19.323645 -2.154540
-1.060162 0.848488 0.291486
-1.116763 0.856285 0.309900
-26.108618 22.520617 0.708934
-41.399258 31.873274 1.394991
-1.157490 0.726896 0.316699
-1.239676 0.744105 0.336462
-45.089413 30.852905 1.929011
-46.506031 28.104177 2.441091
-3.760676 3.121910 -1.836609
-3.960752 2.954582 -1.833113
-8.903360 4.631142 -1.852986
-9.496552 4.331342 -1.835883
-4.211207 2.709342 -1.813042
-4.448838 2.544752 -1.801424
-3.625296 2.448327 -1.819961
-3.814253 2.294168 -1.813422
-4.736887 2.300884 -1.803036
-4.975120 2.113642 -1.791458
-4.030106 2.059649 -1.800223
-4.276840 1.910450 -1.804164
-5.316849 4.389084 -1.860923
-5.710723 4.243272 -1.856671
-4.375395 3.792825 -1.847435
-4.592525 3.573010 -1.830447
-6.007884 3.882126 -1.818560
-6.455486 3.703878 -1.823529
-4.887507 3.309142 -1.811807
-5.205264 3.132306 -1.808658
-6.895728 3.395752 -1.807783
-7.317369 3.145710 -1.795269
-5.544199 2.863708 -1.800832
-5.841644 2.647104 -1.788324
-9.339093 7.718289 -2.046759
-10.188934 7.516303 -2.027360
-6.739614 5.804297 -1.929257
-7.224813 5.583277 -1.912542
-1.162062 0.725710 -0.079115
-11.573450 6.683003 -1.911957
-7.724637 5.240849 -1.888773
-8.265317 4.980849 -1.869801
-11.923323 9.918933 -2.039834
-12.935825 9.604568 -2.026063
-49.983524 26.556072 2.961830
-1.291736 0.624172 0.285007
-14.174891 9.283320 -2.014687
-15.937372 9.255375 -2.023092
-9.622325 6.581080 -1.936723
-10.264829 6.242282 -1.900563
-17.045034 8.598538 -1.932612
-18.313637 8.026518 -1.871675
-11.090128 5.859549 -1.869537
-11.803443 5.469054 -1.833824
-18.817343 15.647465 -0.793735
-22.707464 16.833961 -0.672707
-15.753497 13.656459 -1.765583
-22.879471 17.710758 -2.232670
-45.347107 29.856213 -1.007907
-45.952229 26.644257 -0.493663
-24.508795 16.826977 -2.069716
-28.485958 17.294142 -2.026426
-1.144516 0.551090 0.200556
-1.290417 0.593168 0.213030
-37.730618 20.063517 -2.266067
-42.278481 19.548866 -2.165852
-1.057491 0.851814 0.291486
-1.114068 0.859789 0.309900
-26.111687 22.666819 0.710364
-41.058594 31.817129 1.388068
-1.155201 0.730529 0.316699
-1.237332 0.747996 0.336462
-45.054794 31.037527 1.931409
-46.501175 28.301008 2.445123
-3.753676 3.136096 -1.838130
-3.955914 2.970325 -1.835369
-8.897442 4.663665 -1.854942
-9.484686 4.361971 -1.836257
-4.204230 2.723577 -1.813779
-4.442444 2.559639 -1.802142
-3.616088 2.458673 -1.819130
-3.824264 2.316444 -1.822405
-4.731313 2.316586 -1.803737
-4.973651 2.131459 -1.793502
-4.020366 2.070603 -1.798622
-4.242189 1.911171 -1.790936
-5.313336 4.414391 -1.864859
-5.700455 4.263486 -1.857760
-4.363458 3.806552 -1.847435
-4.584267 3.589740 -1.831744
-6.005330 3.907325 -1.821755
-6.445495 3.725102 -1.824043
-4.881775 3.327706 -1.813711
-5.200291 3.151581 -1.810510
-6.886759 3.418266 -1.808278
-7.305665 3.167916 -1.794794
-5.526731 2.876672 -1.797833
-5.833299 2.665443 -1.788324
-9.310268 7.743806 -2.045689
-10.174780 7.555306 -2.029391
-6.722814 5.826722 -1.929713
-7.213410 5.610721 -1.914306
-10.645869 6.949247 -1.945941
-11.562660 6.725272 -1.913782
-7.719407 5.272836 -1.891762
-8.251305 5.007801 -1.870211
-11.881494 9.947431 -2.037816
-12.956423 9.683023 -2.034895
-49.438541 26.465744 2.936323
-1.289768 0.628227 0.285007
-14.168807 9.343123 -2.018345
-15.891066 9.295399 -2.020678
-9.585428 6.600089 -1.933079
-10.255258 6.280650 -1.902651
-17.083441 8.685459 -1.940888
-18.319279 8.097645 -1.875205
-11.089060 5.903668 -1.872826
-11.798743 5.511937 -1.836008
-18.739002 15.682106 -0.792178
-22.688135 16.930294 -0.674016
-15.737492 13.729477 -1.768986
-22.809559 17.771538 -2.231154
-45.318062 30.041645 -1.009654
-45.928753 26.823759 -0.494587
-26.077196 18.026688 -2.221130
-28.520058 17.437605 -2.033396
-52.605900 26.848755 -0.089802
-1.288547 0.597219 0.213030
-37.832779 20.270691 -2.276947
-42.397934 19.765890 -2.176042
-1.054809 0.855132 0.291486
-1.111361 0.863285 0.309900
-26.108072 22.807997 0.711678
-40.712383 31.754251 1.380964
-1.152900 0.734154 0.316699
-1.234976 0.751880 0.336462
-44.916008 31.150417 1.929831
-46.475094 28.485565 2.448167
-3.743805 3.147874 -1.838130
-3.951016 2.986068 -1.837625
-8.884479 4.692515 -1.855334
-9.463798 4.388458 -1.834762
-4.195653 2.736772 -1.813779
-4.437619 2.575440 -1.803577
-3.611336 2.472094 -1.820792
-3.813840 2.326564 -1.820771
-4.725688 2.332277 -1.804438
-4.977308 2.151501 -1.797589
-4.012220 2.082369 -1.797821
-4.241209 1.926747 -1.793270
-5.312651 4.442192 -1.869920
-5.685491 4.280222 -1.857215
-4.364204 3.831517 -1.853344
-4.567002 3.599466 -1.829150
-5.994633 3.927234 -1.822287
-6.437108 3.747266 -1.825071
-4.871296 3.343026 -1.813711
-5.203389 3.175776 -1.815447
-6.877717 3.440757 -1.808773
-7.304588 3.194715 -1.797171
-5.517667 2.894021 -1.797833
-5.821414 2.682168 -1.787162
-9.291919 7.778083 -2.047115
-10.136762 7.576643 -2.026345
-6.705938 5.849097 -1.930169
-7.198826 5.635751 -1.915188
-10.658569 7.005489 -1.952762
-11.556844 6.770528 -1.916521
-7.699590 5.294838 -1.890908
-8.247244 5.040813 -1.873079
-11.836584 9.973210 -2.035222
-12.873638 9.684468 -2.025787
-1.286122 0.664924 0.273862
-1.287788 0.632276 0.285007
-14.103080 9.363405 -2.012597
-15.837817 9.331203 -2.017300
-9.585626 6.644782 -1.937817
-10.245547 6.319018 -1.904740
-17.006578 8.713644 -1.934625
-18.351923 8.181001 -1.881849
-11.073932 5.940349 -1.873483
-11.781370 5.548977 -1.836008
-18.689640 15.740901 -0.792178
-22.697214 17.048254 -0.676448
-15.694283 13.778852 -1.768986
-22.667301 17.775551 -2.221887
-45.289959 30.228302 -1.011446
-45.899429 27.000341 -0.495432
-24.711760 17.196180 -2.098651
-28.296831 17.423672 -2.020127
-52.128330 26.811560 -0.087581
-1.286664 0.601264 0.213030
-37.907665 20.464468 -2.286090
-42.478474 19.966040 -2.184092
-1.052118 0.858442 0.291486
-1.108643 0.866772 0.309900
-1.101729 0.935413 0.226642
-40.370121 31.691984 1.373951
-1.150588 0.737773 0.316699
-1.232608 0.755756 0.336462
-44.796623 31.276491 1.929011
-46.467022 28.681776 2.452117
-3.743737 3.168037 -1.843453
-3.943096 2.999580 -1.838377
-8.876610 4.724108 -1.856899
-9.474913 4.429757 -1.839993
-4.179291 2.744796 -1.810096
-4.432739 2.591237 -1.805013
-3.605044 2.484469 -1.821624
-3.794023 2.330961 -1.814239
-4.714992 2.345426 -1.803036
-4.939433 2.153749 -1.785327
-4.010516 2.097540 -1.800223
-4.235135 1.940061 -1.793270
-5.301597 4.461342 -1.871044
-5.678168 4.302689 -1.859395
-4.342274 3.836408 -1.848748
-4.570546 3.625488 -1.835636
-5.985477 3.948183 -1.823352
-6.430316 3.770386 -1.826613
-4.862325 3.359398 -1.814345
-5.185261 3.187161 -1.812361
-6.872055 3.464983 -1.810257
-7.298076 3.219204 -1.798122
-5.513597 2.914037 -1.799632
-5.818175 2.702842 -1.788906
-9.270442 7.809779 -2.047828
-10.109754 7.606088 -2.025668
-6.691909 5.874003 -1.931536
-7.185693 5.661949 -1.916511
-10.692389 7.076085 -1.963804
-11.555969 6.818818 -1.920173
-7.697348 5.329051 -1.894751
-8.239715 5.071808 -1.875128
-11.865487 10.061645 -2.046753
-12.884260 9.755887 -2.032963
-47.732357 25.938616 2.850939
-1.285796 0.636318 0.285007
-14.134528 9.448530 -2.022264
-15.493999 9.194924 -1.972900
-9.551823 6.665829 -1.934901
-10.227321 6.352208 -1.905087
-16.901476 8.726800 -1.924783
-18.249886 8.204453 -1.873129
-11.070816 5.983582 -1.876443
-11.792459 5.599461 -1.841000
-18.644669 15.803417 -0.792424
-22.693012 17.156797 -0.678381
-15.650918 13.828086 -1.768986
-22.677095 17.898470 -2.228964
-45.161594 30.348108 -1.010550
-45.860851 27.171894 -0.496145
-24.636396 17.258835 -2.096661
-28.213110 17.494621 -2.017848
-51.514828 26.700687 -0.084587
-1.284769 0.605303 0.213030
-38.023788 20.681822 -2.298012
-42.529285 20.153206 -2.190512
-1.049416 0.861743 0.291486
-1.105915 0.870251 0.309900
-1.098785 0.938870 0.226642
-40.025528 31.625397 1.366846
-1.148265 0.741383 0.316699
-1.230228 0.759624 0.336462
-44.869812 31.537840 1.935637
-46.437805 28.865555 2.455079
-3.722551 3.170127 -1.837370
-3.936608 3.014190 -1.839881
-8.878984 4.761283 -1.860813
-9.466287 4.462000 -1.841113
-4.175284 2.761012 -1.812305
-4.424577 2.605150 -1.805013
-3.597221 2.495781 -1.821624
-3.783565 2.340965 -1.812605
-4.710941 2.361922 -1.804438
-4.946443 2.175245 -1.790777
-4.000673 2.108401 -1.798622
-4.249142 1.962515 -1.802608
-5.274415 4.466762 -1.865984
-5.658485 4.315860 -1.857215
-4.340045 3.858861 -1.853344
-4.548748 3.631612 -1.831096
-5.976248 3.969111 -1.824417
-6.420108 3.791545 -1.827127
-4.850195 3.373566 -1.813711
-5.191441 3.213378 -1.818533
-6.873208 3.492740 -1.813720
-7.280816 3.238979 -1.796220
-5.507776 2.933151 -1.800832
-5.807920 2.720301 -1.788324
-9.242865 7.836312 -2.047115
-10.148765 7.685281 -2.039208
-6.674879 5.896290 -1.931992
-7.177062 5.691741 -1.919158
-10.783269 7.185374 -1.986214
-11.548100 6.863139 -1.922607
-7.694967 5.363301 -1.898594
-8.227075 5.099720 -1.875948
-11.883425 10.141354 -2.056266
-12.910332 9.839454 -2.042898
-47.748726 26.142223 2.856391
-1.283790 0.640355 0.285007
-14.106415 9.494001 -2.022525
-15.610014 9.329932 -1.993411
-9.529225 6.694673 -1.934537
-10.225704 6.395758 -1.908916
-16.907450 8.797334 -1.929033
-18.282028 8.287957 -1.879773
-11.077922 6.032540 -1.881377
-11.769459 5.633935 -1.840064
-18.596445 15.863215 -0.792506
-22.680386 17.259447 -0.680002
-15.616315 13.885140 -1.770121
-22.434927 17.822283 -2.208914
-45.206745 30.585152 -1.014357
-45.837101 27.352715 -0.497095
-24.598337 17.347656 -2.098192
-28.068254 17.527227 -2.010745
-50.934437 26.602930 -0.081773
-1.282861 0.609337 0.213030
-38.131908 20.896282 -2.309470
-42.555897 20.329725 -2.195607
-1.046703 0.865035 0.291486
-1.103175 0.873721 0.309900
-1.095830 0.942317 0.226642
-39.692688 31.565680 1.360061
-1.145930 0.744987 0.316699
-1.227835 0.763486 0.336462
-44.780293 31.685591 1.936015
-46.423126 29.058987 2.458781
-3.715369 3.184230 -1.838891
-3.922697 3.023173 -1.837625
-8.865705 4.790092 -1.861204
-9.453998 4.492558 -1.841487
-4.166589 2.774116 -1.812305
-4.421201 2.621870 -1.807166
-3.601243 2.515475 -1.828273
-3.790187 2.361449 -1.819955
-4.701829 2.375858 -1.803737
-4.958532 2.199069 -1.798270
-3.997257 2.122698 -1.800223
-4.236257 1.972782 -1.799495
-5.269092 4.490815 -1.869357
-5.667859 4.351110 -1.865388
-4.327899 3.872478 -1.853344
-4.538795 3.647063 -1.831744
-5.963749 3.987867 -1.824417
-6.418150 3.817591 -1.830212
-4.851963 3.397546 -1.818788
-5.165133 3.219678 -1.812361
-6.863922 3.515206 -1.814215
-7.275929 3.264207 -1.797647
-5.501888 2.952259 -1.802032
-5.795877 2.736915 -1.787162
-9.192796 7.843542 -2.041055
-10.097876 7.696869 -2.033453
-6.666483 5.926319 -1.935183
-7.165256 5.719111 -1.920922
-10.778644 7.231348 -1.989786
-11.548554 6.912542 -1.926563
-7.668500 5.380690 -1.896032
-8.211011 5.125543 -1.875948
-11.887490 10.209641 -2.063185
-12.909256 9.902820 -2.048142
-47.734566 26.329752 2.860188
-1.281772 0.644384 0.285007
-14.078161 9.539384 -2.022787
-15.536363 9.352364 -1.987137
-9.532193 6.741661 -1.940003
-10.207230 6.428895 -1.909265
-16.937773 8.880939 -1.936415
-18.232368 8.334628 -1.877073
-11.058916 6.067310 -1.881377
-11.776634 5.682850 -1.844432
-18.537430 15.913736 -0.792014
-22.651463 17.350037 -0.680999
-15.575581 13.936787 -1.770499
-22.453594 17.952339 -2.217001
-45.179825 30.774323 -1.016238
-45.706364 27.469805 -0.496409
-25.619484 18.189985 -2.199543
-27.271099 17.149567 -1.951905
-50.365795 26.507362 -0.079020
-1.280940 0.613364 0.213030
-38.249550 21.117403 -2.321623
-42.563824 20.497938 -2.199683
-1.043980 0.868319 0.291486
-1.100425 0.877182 0.309900
-1.092864 0.945755 0.226642
-39.360645 31.504166 1.353275
-1.143584 0.748583 0.316699
-1.225430 0.767339 0.336462
-44.700069 31.840034 1.936772
-46.399250 29.247271 2.462072
-3.708136 3.198316 -1.840412
-3.913181 3.035480 -1.837625
-8.854054 4.819805 -1.861987
-9.454029 4.528991 -1.844475
-4.159392 2.788235 -1.813042
-4.406513 2.631949 -1.804295
-3.584432 2.520444 -1.823286
-3.771885 2.366615 -1.814239
-4.699337 2.393192 -1.805840
-4.937838 2.208560 -1.792820
-3.992180 2.136118 -1.801023
-4.241743 1.991496 -1.804942
-5.272385 4.522405 -1.876104
-5.641945 4.359525 -1.861029
-4.318509 3.888595 -1.854657
-4.536174 3.668402 -1.835636
-5.955978 4.009830 -1.826015
-6.402803 3.835759 -1.829184
-4.833539 3.407273 -1.815615
-5.166302 3.242920 -1.816682
-6.851127 3.535856 -1.813720
-7.267412 3.287842 -1.798122
-5.495936 2.971357 -1.803232
-5.792443 2.757555 -1.788906
-9.174071 7.877523 -2.042481
-10.098708 7.747698 -2.038869
-6.655070 5.953744 -1.937462
-7.148778 5.742810 -1.921363
-10.759139 7.267388 -1.990436
-11.425091 6.887750 -1.908305
-7.659524 5.410413 -1.898167
-8.211471 5.161686 -1.880046
-11.851975 10.211475 -2.059437
-12.888970 9.919468 -2.047314
-47.763039 26.443434 2.864083
-1.280758 0.646397 0.285007
-14.084454 9.576010 -2.026183
-15.496140 9.361393 -1.983517
-9.540808 6.770325 -1.944376
-10.217125 6.457503 -1.913441
-17.234873 9.071799 -1.976006
-1.298785 0.622740 0.064934
-11.059729 6.090405 -1.883350
-11.787270 5.710777 -1.847863
-18.510897 15.941529 -0.791932
-22.671768 17.422092 -0.682870
-15.552190 13.959903 -1.770310
-22.549826 18.087231 -2.230480
-45.208996 30.898321 -1.018343
-45.719688 27.575624 -0.497280
-25.732098 18.330980 -2.212862
-26.849031 16.943502 -1.920542
-49.926315 26.376060 -0.076759
-1.279976 0.615375 0.213030
-38.406635 21.283060 -2.334239
-42.612518 20.603849 -2.204269
-1.042615 0.869958 0.291486
-1.099046 0.878910 0.309900
-1.091377 0.947471 0.226642
-39.080269 31.380787 1.346535
-1.142407 0.750379 0.316699
-1.224224 0.769263 0.336462
-44.698776 31.945099 1.938666
-46.434341 29.371355 2.466022
-3.708678 3.209008 -1.843453
-3.911345 3.043884 -1.839129
-8.851629 4.836540 -1.863161
-9.455770 4.548071 -1.846343
-4.155008 2.794765 -1.813042
-4.400767 2.637916 -1.803577
-3.580469 2.526072 -1.823286
-3.783670 2.382174 -1.822405
-4.690581 2.397988 -1.803737
-4.941239 2.219362 -1.795545
-3.985600 2.140633 -1.799422
-4.220231 1.989616 -1.796383
-5.259474 4.525652 -1.873855
-5.641192 4.373075 -1.863209
-4.309603 3.892828 -1.853344
-4.523034 3.669596 -1.832393
-5.956046 4.023520 -1.828144
-6.398431 3.846802 -1.829698
-4.835899 3.420371 -1.818788
-5.153132 3.245995 -1.813596
-6.848999 3.548408 -1.814710
-7.269323 3.302444 -1.800023
-5.484569 2.976318 -1.800832
-5.782915 2.764195 -1.787162
-9.148293 7.880335 -2.039273
-10.075575 7.755158 -2.036500
-6.676066 5.991593 -1.947034
-7.148884 5.761351 -1.924009
-10.788497 7.312040 -1.998555
-11.529399 6.975044 -1.928998
-7.655789 5.425839 -1.899448
-8.211645 5.179777 -1.882095
-11.843727 10.269444 -2.064050
-12.837362 9.944176 -2.043726
-47.770424 26.643999 2.869145
-1.278721 0.650417 0.285007
-14.062472 9.625823 -2.027489
-15.439494 9.393558 -1.979656
-9.538662 6.814024 -1.948750
-10.193460 6.487463 -1.912745
-17.323843 9.188450 -1.990993
-18.337395 8.487106 -1.893682
-11.054327 6.132806 -1.885981
-11.781708 5.753823 -1.850047
-18.457710 15.996985 -0.791768
-22.635912 17.507891 -0.683618
-15.518589 14.018047 -1.771633
-22.508408 18.170485 -2.232165
-45.157806 31.071949 -1.019597
-45.690964 27.754391 -0.498178
-25.688961 18.422199 -2.214240
-1.158720 0.765786 0.118607
-49.368420 26.279757 -0.074056
-1.278036 0.619393 0.213030
-38.592293 21.544888 -2.351021
-42.630192 20.777830 -2.208956
-1.039877 0.873229 0.291486
-1.096280 0.882358 0.309900
-1.088396 0.950895 0.226642
-38.755913 31.321291 1.339932
-1.140044 0.753964 0.316699
-1.221801 0.773105 0.336462
-44.654972 32.126251 1.940874
-46.409283 29.559996 2.469313
-3.698578 3.220644 -1.843453
-3.901763 3.056157 -1.839129
-8.846685 4.870026 -1.865509
-9.434354 4.574344 -1.844849
-4.155413 2.814108 -1.817462
-4.390856 2.650772 -1.802860
-3.568085 2.534121 -1.820792
-3.763787 2.386300 -1.815872
-4.694650 2.418774 -1.808644
-4.941109 2.237944 -1.798270
-3.982070 2.154907 -1.801023
-4.233980 2.012244 -1.805720
-5.259693 4.554771 -1.879478
-5.625904 4.389598 -1.862664
-4.301529 3.910179 -1.855313
-4.517367 3.688547 -1.834987
-5.940197 4.040032 -1.827080
-6.394598 3.871861 -1.832268
-4.826670 3.436654 -1.819423
-5.160628 3.273302 -1.820385
-6.844677 3.573518 -1.816689
-7.260682 3.326069 -1.800499
-5.483544 2.998145 -1.803831
-5.782840 2.786468 -1.790068
-9.102712 7.890944 -2.034283
-10.073011 7.803629 -2.041239
-6.642796 5.999443 -1.942476
-7.129230 5.782557 -1.923568
-10.840354 7.397213 -2.013495
-11.507430 7.011230 -1.928998
-7.646643 5.455560 -1.901583
-8.198643 5.207640 -1.882914
-11.826297 10.319639 -2.066933
-12.860802 10.026998 -2.053386
-47.763092 26.837040 2.873429
-1.276672 0.654431 0.285007
-14.017485 9.659806 -2.025138
-15.514959 9.506178 -1.994617
-9.553870 6.870446 -1.957131
-10.191294 6.531105 -1.916574
-17.259859 9.224048 -1.986519
-18.406235 8.589134 -1.904686
-11.047046 6.174266 -1.888284
-11.775991 5.796892 -1.852231
-18.408865 16.056208 -0.791850
-26.342381 20.501791 -0.832195
-15.474472 14.066733 -1.771633
-22.345961 18.155750 -2.220708
-45.124050 31.258101 -1.021344
-45.658150 27.931171 -0.499022
-25.776388 18.607985 -2.228019
-26.817720 17.160206 -1.926573
-48.866253 26.209549 -0.071664
-1.276084 0.623405 0.213030
-38.651421 21.737549 -2.359471
-42.643612 20.950369 -2.213440
-1.037129 0.876492 0.291486
-1.093502 0.885798 0.309900
-1.085403 0.954309 0.226642
-38.446270 31.271420 1.333738
-1.137669 0.757542 0.316699
-1.219366 0.776940 0.336462
-44.623409 32.316837 1.943587
-46.405357 29.762787 2.473673
-3.695365 3.238380 -1.847256
-3.889220 3.066120 -1.837625
-8.836480 4.900663 -1.866683
-9.442914 4.615120 -1.849705
-4.155736 2.833482 -1.821882
-4.388906 2.668400 -1.805731
-3.560106 2.545318 -1.820792
-3.756271 2.398113 -1.815872
-4.678738 2.429155 -1.805139
-4.934053 2.253457 -1.798270
-3.976884 2.168293 -1.801823
-4.229303 2.026322 -1.806499
-5.223723 4.552277 -1.871044
-5.615121 4.409617 -1.863754
-4.290612 3.924955 -1.855970
-4.514559 3.709889 -1.838879
-5.935409 4.064149 -1.829742
-6.377441 3.888929 -1.830726
-4.812776 3.449577 -1.818154
-5.135851 3.280344 -1.814830
-6.843688 3.600452 -1.819658
-7.269626 3.357760 -1.805728
-5.472431 3.014430 -1.803232
-5.777507 2.806280 -1.791231
-9.123762 7.959709 -2.045333
-10.042219 7.830400 -2.039885
-6.625352 6.021596 -1.942932
-7.109514 5.803697 -1.923127
-10.821935 7.434596 -2.014469
-11.508964 7.061776 -1.933258
-7.632633 5.481844 -1.902437
-8.185545 5.235472 -1.883734
-11.780453 10.344965 -2.064338
-12.780869 10.029521 -2.044830
-47.755013 27.030291 2.877713
-1.274609 0.658439 0.285007
-14.016361 9.724185 -2.029841
-15.055475 9.290673 -1.933325
-9.654698 6.989490 -1.985193
-10.182326 6.570540 -1.919011
-17.319977 9.326400 -1.997927
-18.334137 8.625805 -1.899496
-11.043047 6.217683 -1.891244
-11.775436 5.842605 -1.855351
-18.353828 16.110003 -0.791604
-26.065264 20.418192 -0.823777
-15.434608 14.119314 -1.772201
-18.867519 15.433377 -1.847350
-45.102680 31.453505 -1.023449
-45.621269 28.105913 -0.499814
-25.837105 18.775715 -2.239348
-26.629410 17.158014 -1.915850
-48.308727 26.105989 -0.068951
-1.274119 0.627411 0.213030
-38.801746 21.983004 -2.374054
-42.701126 21.145325 -2.220472
-1.034370 0.879746 0.291486
-1.090714 0.889229 0.309900
-31.969255 29.293457 0.838594
-38.145069 31.226234 1.327773
-1.135284 0.761112 0.316699
-1.216919 0.780767 0.336462
-44.594334 32.509892 1.946427
-46.383831 29.955008 2.477211
-3.672745 3.238895 -1.840412
-3.891230 3.087478 -1.843642
-8.824460 4.930321 -1.867465
-9.421308 4.641307 -1.848211
-4.133066 2.836981 -1.815252
-4.380501 2.682175 -1.805731
-3.565323 2.566133 -1.828273
-3.751802 2.411858 -1.817505
-4.679360 2.448224 -1.808644
-4.918390 2.265054 -1.794864
-3.973256 2.182560 -1.803424
-4.214600 2.035639 -1.802608
-5.219464 4.577561 -1.874980
-5.617895 4.440301 -1.869747
-4.281028 3.940986 -1.857283
-4.507270 3.727651 -1.840824
-5.924194 4.083875 -1.830274
-6.368494 3.910957 -1.831754
-4.814180 3.473611 -1.823231
-5.141563 3.306685 -1.821002
-6.835761 3.623760 -1.820648
-7.244931 3.374067 -1.801925
-5.466262 3.033473 -1.804431
-5.766940 2.823583 -1.790650
-9.125278 8.011760 -2.051749
-10.002037 7.849772 -2.036500
-6.610701 6.046336 -1.944299
-7.110886 5.842046 -1.928861
-10.764487 7.444915 -2.007649
-11.496822 7.104112 -1.935084
-7.620115 5.509243 -1.903718
-8.170707 5.262217 -1.884144
-11.739012 10.374044 -2.062608
