ply
format ascii 1.0
element vertex 1635
property float x
property float y
property float z
end_header
-11.041090 2.923100 -1.814443
-7.984001 2.768911 -1.825328
-8.331987 2.405722 -1.808890
-11.551532 2.317832 -1.792646
-12.330897 1.823511 -1.773499
-8.705500 1.937589 -1.797822
-9.116672 1.522472 -1.784563
-13.265754 4.347757 -1.814109
-14.068069 3.770292 -1.810519
-1.441462 0.135723 0.273862
-1.430798 0.104821 0.285007
-14.863052 3.053935 -1.781377
-16.128027 2.426383 -1.765376
-10.608257 2.402461 -1.792044
-11.113680 1.902270 -1.770036
-17.352921 1.567530 -1.744944
-18.600693 0.673104 -1.727385
-11.770411 1.287617 -1.752450
-12.370453 0.705928 -1.736172
-21.521107 7.050874 -0.718847
-55.033527 14.668485 -1.567471
-18.923277 6.633761 -1.689949
-21.176891 6.136092 -1.650563
-54.249580 11.294974 -1.032989
-62.656967 9.366059 -0.628776
-23.415573 5.345839 -1.631245
-26.920090 4.588119 -1.622322
-1.267013 0.091067 0.200556
-1.418159 0.076480 0.213030
-30.098274 3.369575 -1.544536
-34.544018 1.947107 -1.554638
-1.296804 0.402709 0.291486
-1.352343 0.389296 0.309900
-67.401970 23.712929 1.248712
-1.363205 0.421675 0.237483
-1.343004 0.253971 0.316699
-1.425798 0.239977 0.336462
-1.353719 0.285588 0.248070
-1.418151 0.268727 0.263205
-4.628774 1.528743 -1.831286
-4.753665 1.300673 -1.827849
-9.579977 1.016246 -1.772760
-10.047647 0.544667 -1.764533
-4.878829 0.977889 -1.800519
-5.039476 0.739809 -1.789221
-1.998027 0.432894 -0.755277
-2.044427 0.360072 -0.751028
-5.201458 0.407990 -1.784807
-5.360148 0.149730 -1.775791
-2.119555 0.195853 -0.753390
-4.634950 0.214783 -1.785489
-6.437727 2.106162 -1.825501
-6.713493 1.823818 -1.811993
-5.404986 1.913788 -1.827739
-5.532947 1.635290 -1.813584
-6.876616 1.392235 -1.780758
-7.205399 1.067817 -1.781376
-5.702969 1.282914 -1.792766
-5.953988 1.009096 -1.796932
-7.539873 0.632417 -1.777106
-7.828718 0.252299 -1.762944
-6.163453 0.636466 -1.787035
-6.378119 0.329612 -1.780186
-10.356023 3.392529 -1.826109
-11.047091 2.961822 -1.817151
-7.980770 2.795928 -1.826695
-8.333757 2.434593 -1.811095
-11.549991 2.355307 -1.793620
-12.329019 1.862824 -1.774107
-8.705082 1.966237 -1.799103
-9.106050 1.550136 -1.783333
-13.257662 4.391289 -1.814974
-14.067631 3.817562 -1.812175
-1.441028 0.140251 0.273862
-1.430462 0.109315 0.285007
-14.849503 3.099797 -1.780855
-16.106583 2.474951 -1.763687
-10.610234 2.438001 -1.793866
-11.103766 1.936508 -1.769340
-17.355824 1.622791 -1.745838
-18.614389 0.732141 -1.729046
-11.785907 1.326839 -1.755739
-12.362256 0.744444 -1.735236
-21.426788 7.094498 -0.715734
-22.212311 6.011262 -0.508793
-18.868574 6.681172 -1.686546
-21.149857 6.200357 -1.649889
-54.211872 11.464938 -1.032944
-62.648979 9.566169 -0.629066
-23.272419 5.389993 -1.621293
-26.773792 4.649918 -1.613342
-1.266721 0.095047 0.200556
-1.417912 0.080935 0.213030
-29.924908 3.445249 -1.535045
-34.240627 2.038163 -1.539455
-1.295532 0.406781 0.291486
-1.351114 0.393543 0.309900
-57.865147 20.558388 1.102089
-1.361874 0.425955 0.237483
-1.342200 0.258188 0.316699
-1.425037 0.244455 0.336462
-1.352815 0.289840 0.248070
-104.446426 18.213301 4.569118
-4.632705 1.546253 -1.835089
-4.754920 1.317057 -1.830105
-9.574788 1.046120 -1.772369
-10.028229 0.575263 -1.761171
-4.873912 0.992831 -1.799782
-5.026042 0.754033 -1.784914
-1.998429 0.439582 -0.756108
-2.018072 0.362296 -0.739596
-5.198285 0.424167 -1.784106
-5.363411 0.166667 -1.777153
-2.142619 0.205067 -0.763794
-4.639774 0.229586 -1.787823
-6.429258 2.125767 -1.824939
-6.711445 1.845907 -1.813083
-5.398947 1.930759 -1.827739
-5.527782 1.652664 -1.813584
-6.870321 1.413436 -1.780225
-7.203920 1.090731 -1.781891
-5.702603 1.301685 -1.794035
-5.943285 1.026533 -1.794463
-7.533990 0.655752 -1.776116
-7.822061 0.276706 -1.761517
-6.165216 0.656246 -1.788235
-6.365585 0.349067 -1.776698
-10.347180 3.425671 -1.826465
-11.030117 2.994464 -1.815797
-7.986617 2.826229 -1.830342
-8.337303 2.464046 -1.813741
-11.550261 2.393200 -1.794919
-12.323105 1.901548 -1.774107
-8.698862 1.993576 -1.799103
-9.108854 1.580052 -1.784972
-13.255057 4.436705 -1.816704
-14.067033 3.864863 -1.813831
-1.440581 0.144777 0.273862
-1.430112 0.113808 0.285007
-14.837753 3.146015 -1.780593
-16.136003 2.531322 -1.768272
-10.614008 2.474025 -1.796052
-11.103450 1.972400 -1.770384
-17.340752 1.676334 -1.744720
-18.602060 0.790204 -1.728008
-11.783640 1.364088 -1.756068
-12.357885 0.783154 -1.734924
-21.533211 7.205040 -0.721305
-55.599842 15.193892 -1.588794
-18.828754 6.733684 -1.684655
-20.774771 6.161789 -1.618551
-54.152130 11.630134 -1.032406
-1.368034 0.239029 0.189211
-23.115637 5.430088 -1.610270
-26.821945 4.745066 -1.617631
-1.266416 0.099026 0.200556
-1.417650 0.085388 0.213030
-29.913935 3.539239 -1.535045
-33.960938 2.128806 -1.525494
-1.294248 0.410848 0.291486
-1.349871 0.397785 0.309900
-57.566917 20.656216 1.098469
-1.360529 0.430231 0.237483
-1.341382 0.262404 0.316699
-1.424262 0.248931 0.336462
-1.351898 0.294088 0.248070
-1.416435 0.277632 0.263205
-4.619077 1.557796 -1.831286
-4.752547 1.332479 -1.830857
-9.581197 1.077315 -1.774326
-10.049911 0.608127 -1.765654
-4.879863 1.010069 -1.803466
-5.025496 0.770091 -1.785632
-1.981106 0.442088 -0.748628
-2.051123 0.374437 -0.755111
-5.204389 0.441165 -1.786910
-5.327148 0.182466 -1.764211
-2.116461 0.208964 -0.752590
-4.629828 0.243727 -1.783933
-6.413459 2.142877 -1.822127
-6.711180 1.868509 -1.814717
-5.398178 1.949660 -1.829708
-5.520750 1.669481 -1.812935
-6.877161 1.437420 -1.783420
-7.200458 1.113356 -1.781891
-5.702179 1.320465 -1.795305
-5.947531 1.046485 -1.796932
-7.524175 0.678693 -1.774137
-7.819211 0.301209 -1.761042
-6.163124 0.675610 -1.788235
-6.368278 0.369268 -1.777860
-10.353152 3.463818 -1.829673
-11.024460 3.030136 -1.816474
-7.970373 2.848661 -1.828519
-8.320168 2.487459 -1.811536
-11.558128 2.432758 -1.797518
-12.344417 1.944499 -1.778367
-8.696360 2.021788 -1.799957
-9.101918 1.608324 -1.784563
-13.246672 4.480241 -1.817569
-14.085372 3.917480 -1.818247
-1.440119 0.149303 0.273862
-1.429747 0.118301 0.285007
-14.833609 3.193880 -1.781377
-16.126013 2.581697 -1.768031
-10.608096 2.507818 -1.796417
-11.103014 2.008314 -1.771428
-17.367035 1.734014 -1.748299
-18.605448 0.848909 -1.728630
-11.785172 1.401816 -1.757055
-12.355364 0.821978 -1.734924
-21.463161 7.256603 -0.719257
-28.369080 7.861552 -0.709243
-18.779430 6.782627 -1.681819
-20.875610 6.262966 -1.629165
-54.103600 11.797652 -1.032138
-62.433578 9.935169 -0.627007
-22.918106 5.459512 -1.596032
-26.767620 4.822275 -1.614951
-1.266099 0.103004 0.200556
-1.417375 0.089842 0.213030
-29.536024 3.588338 -1.513633
-33.681011 2.217727 -1.511533
-1.292951 0.414913 0.291486
-1.348614 0.402025 0.309900
-57.300587 20.763996 1.095345
-1.359170 0.434504 0.237483
-1.340551 0.266617 0.316699
-1.423473 0.253404 0.336462
-1.350967 0.298334 0.248070
-1.415555 0.282081 0.263205
-4.614160 1.572301 -1.831286
-4.760836 1.350880 -1.836121
-9.579713 1.107643 -1.774717
-10.042067 0.639340 -1.764533
-4.878484 1.025788 -1.804202
-5.032279 0.787272 -1.789221
-1.997396 0.452554 -0.756939
-2.075123 0.385235 -0.766544
-5.197382 0.456994 -1.784807
-5.356620 0.200180 -1.775110
-2.119436 0.216029 -0.754190
-4.623519 0.257996 -1.781598
-6.419407 2.167363 -1.826063
-6.697860 1.887525 -1.812538
-5.395569 1.967921 -1.831021
-5.517289 1.687364 -1.813584
-6.868842 1.458206 -1.782355
-7.198835 1.136268 -1.782405
-5.696157 1.337932 -1.794670
-5.932970 1.063201 -1.793229
-7.531650 0.703264 -1.776611
-7.825993 0.326072 -1.762944
-6.157180 0.694527 -1.787035
-6.365176 0.389165 -1.777279
-10.351532 3.499503 -1.831455
-11.026287 3.067903 -1.818505
-7.974190 2.878356 -1.831710
-8.327263 2.518060 -1.815065
-11.552357 2.469477 -1.797842
-12.342151 1.983894 -1.778976
-8.697566 2.050917 -1.801665
-9.104530 1.638279 -1.786202
-13.240019 4.524406 -1.818722
-14.063457 3.959041 -1.816867
-1.439643 0.153826 0.273862
-1.429368 0.122792 0.285007
-14.831247 3.242170 -1.782422
-16.151140 2.637730 -1.772133
-10.609722 2.543445 -1.798239
-11.098588 2.043535 -1.771776
-17.365456 1.788975 -1.748746
-18.600702 0.907258 -1.728423
-11.788541 1.439805 -1.758370
-12.366519 0.861719 -1.737108
-21.474283 7.335658 -0.720731
-28.132469 7.891430 -0.702385
-18.750551 6.838847 -1.681062
-21.252636 6.448404 -1.664210
-54.062374 11.966690 -1.032048
-62.165173 10.092888 -0.623839
-22.823326 5.512666 -1.589908
-26.736633 4.903475 -1.613878
-1.265769 0.106981 0.200556
-1.417086 0.094294 0.213030
-29.607811 3.691552 -1.518494
-33.490543 2.311013 -1.502158
-1.291641 0.418972 0.291486
-1.347345 0.406259 0.309900
-56.994728 20.855833 1.091608
-1.357799 0.438771 0.237483
-1.339707 0.270827 0.316699
-1.422670 0.257875 0.336462
-1.350023 0.302576 0.248070
-1.414662 0.286526 0.263205
-4.617927 1.589845 -1.835089
-4.747649 1.363318 -1.832361
-9.572291 1.137258 -1.773934
-10.047852 0.671386 -1.766028
-4.867971 1.039517 -1.801256
-5.035317 0.803932 -1.791375
-2.013640 0.463127 -0.765250
-2.046932 0.387001 -0.754295
-5.197785 0.473498 -1.785508
-5.359723 0.217141 -1.776472
-2.126029 0.223541 -0.757392
-4.642924 0.273598 -1.790158
-6.399868 2.183132 -1.822127
-6.701160 1.911161 -1.815262
-5.380511 1.981556 -1.827739
-5.528250 1.709645 -1.819421
-6.867993 1.480603 -1.783420
-7.199049 1.159478 -1.783432
-5.702984 1.358505 -1.798478
-5.927728 1.081500 -1.792611
-7.533260 0.727306 -1.777601
-7.834634 0.351058 -1.765320
-6.156863 0.714093 -1.787635
-6.369653 0.409504 -1.779023
-10.334905 3.530082 -1.830386
-11.007102 3.099875 -1.816813
-7.954145 2.899357 -1.828975
-8.306242 2.540252 -1.811977
-11.550325 2.507024 -1.798817
-12.343662 2.023918 -1.780193
-8.685385 2.076849 -1.800384
-9.097412 1.666524 -1.785792
-13.227611 4.566625 -1.819010
-14.060481 4.005898 -1.818247
-1.439152 0.158348 0.273862
-1.428975 0.127281 0.285007
-14.857755 3.296969 -1.787386
-16.115349 2.683931 -1.768755
-10.595950 2.575355 -1.797146
-11.099859 2.079823 -1.773168
-17.377535 1.845434 -1.750759
-18.617626 0.966690 -1.730499
-11.793743 1.478078 -1.760015
-12.367691 0.900842 -1.737732
-21.475679 7.411584 -0.721797
-27.922884 7.927519 -0.696399
-18.740179 6.901860 -1.682197
-21.257053 6.522706 -1.666400
-54.026463 12.136901 -1.032093
-62.245617 10.306700 -0.625344
-22.647110 5.545269 -1.577355
-26.746603 4.992177 -1.615621
-1.265427 0.110957 0.200556
-1.416783 0.098745 0.213030
-29.542601 3.777660 -1.515369
-33.485115 2.416352 -1.502260
-1.290318 0.423028 0.291486
-1.346062 0.410490 0.309900
-1.364275 0.477030 0.226642
-1.356414 0.443035 0.237483
-1.338849 0.275034 0.316699
-1.421853 0.262343 0.336462
-1.349066 0.306816 0.248070
-1.413755 0.290969 0.263205
-4.614654 1.604961 -1.835849
-4.745125 1.378733 -1.833113
-9.564779 1.166837 -1.773152
-10.039812 0.702551 -1.764907
-4.870127 1.056015 -1.803466
-5.023546 0.818292 -1.787785
-1.985682 0.462917 -0.752783
-2.058286 0.395686 -0.760011
-5.198136 0.490009 -1.786209
-5.349619 0.233612 -1.773067
-2.132594 0.231097 -0.760593
-4.634684 0.287766 -1.787045
-6.416536 2.211446 -1.829437
-6.702528 1.934309 -1.817441
-5.368957 1.996450 -1.825769
-5.508387 1.722551 -1.814232
-6.863308 1.502171 -1.783420
-7.199187 1.182701 -1.784461
-5.689481 1.374147 -1.795305
-5.928045 1.100795 -1.793846
-7.536721 0.751564 -1.779085
-7.831553 0.375581 -1.764845
-6.158376 0.733898 -1.788835
-6.354966 0.428665 -1.774954
-10.327482 3.563823 -1.831099
-10.995413 3.133902 -1.816474
-7.959599 2.929756 -1.832621
-8.305683 2.568616 -1.813741
-11.550097 2.545011 -1.800116
-12.339193 2.063007 -1.780497
-8.684509 2.105521 -1.801665
-9.088281 1.694388 -1.784972
-13.240973 4.594574 -1.822181
-14.061790 4.030149 -1.819351
-1.438902 0.160608 0.273862
-1.428774 0.129526 0.285007
-14.856425 3.321177 -1.787909
-16.136572 2.713483 -1.771892
-10.603345 2.594829 -1.799332
-11.098516 2.097619 -1.773516
-17.368689 1.872083 -1.750088
-18.616085 0.995935 -1.730499
-11.785538 1.495846 -1.759028
-12.374144 0.920839 -1.738980
-21.467785 7.446627 -0.721961
-27.766195 7.930330 -0.691723
-18.761045 6.943081 -1.685411
-21.250589 6.557262 -1.666737
-53.991734 12.218220 -1.031734
-1.365323 0.254057 0.189211
-22.562883 5.562141 -1.571384
-26.764225 5.038962 -1.617363
-1.265251 0.112944 0.200556
-1.416626 0.100971 0.213030
-29.491093 3.818129 -1.512707
-33.590847 2.476946 -1.507865
-1.289652 0.425054 0.291486
-1.345415 0.412604 0.309900
-1.363524 0.479173 0.226642
-1.355716 0.445165 0.237483
-1.338416 0.277137 0.316699
-1.421439 0.264576 0.336462
-1.348582 0.308935 0.248070
-1.413296 0.293189 0.263205
-4.610384 1.611589 -1.835089
-4.741172 1.385675 -1.832361
-9.592123 1.185549 -1.779022
-10.042616 0.718593 -1.765654
-4.868463 1.063664 -1.803466
-5.029629 0.827357 -1.790657
-2.007904 0.471734 -0.763588
-2.039697 0.395667 -0.751845
-5.201087 0.498550 -1.787611
-5.371792 0.242926 -1.781240
-2.106758 0.231333 -0.749388
-4.639744 0.295367 -1.789380
-6.414865 2.222158 -1.829999
-6.693930 1.943248 -1.815807
-5.376414 2.008897 -1.829708
-5.521940 1.736236 -1.820070
-6.862822 1.513373 -1.783952
-7.204952 1.195247 -1.786517
-5.698360 1.385821 -1.799113
-5.950636 1.114554 -1.801869
-7.531676 0.762999 -1.778095
-7.823190 0.387525 -1.762944
-6.149643 0.742625 -1.786435
-6.356195 0.438771 -1.775535
-10.312581 3.576796 -1.829317
-10.996165 3.152788 -1.817490
-7.971407 2.948386 -1.836724
-8.310960 2.584529 -1.815947
-11.549936 2.564016 -1.800765
-12.330089 2.081414 -1.779585
-8.681191 2.119162 -1.801665
-9.104856 1.712227 -1.789070
-13.224607 4.635492 -1.821893
-14.068095 4.079790 -1.822111
-1.438390 0.165128 0.273862
-1.428360 0.134014 0.285007
-14.843986 3.367393 -1.787648
-16.151457 2.768152 -1.774787
-10.598956 2.629085 -1.800061
-11.093804 2.132843 -1.773865
-17.392345 1.929971 -1.753443
-18.616837 1.054635 -1.730914
-11.782737 1.533123 -1.759357
-12.367249 0.959413 -1.738356
-1.229921 0.404981 0.156616
-27.627810 7.984877 -0.688045
-18.774557 7.015273 -1.689004
-21.250818 6.630496 -1.668590
-53.974510 12.392715 -1.032227
-1.364518 0.258345 0.189211
-22.382832 5.592213 -1.558524
-26.746304 5.122648 -1.617229
-1.264890 0.116919 0.200556
-1.416302 0.105421 0.213030
-29.372082 3.896487 -1.506457
-33.557003 2.580492 -1.506540
-1.288310 0.429104 0.291486
-1.344113 0.416828 0.309900
-56.082146 21.022425 1.079958
-1.354311 0.449422 0.237483
-1.337539 0.281340 0.316699
-1.420601 0.269040 0.336462
-1.347605 0.313170 0.248070
-94.425491 18.154730 4.162831
-4.601816 1.624815 -1.833568
-4.738575 1.401080 -1.833113
-9.576681 1.214167 -1.776674
-10.061866 0.751694 -1.769763
-4.863284 1.078542 -1.802729
-5.021477 0.842256 -1.788503
-1.983479 0.472269 -0.752783
-2.052807 0.404720 -0.758378
-5.199495 0.514888 -1.787611
-5.348459 0.258820 -1.773067
-2.122389 0.240004 -0.756591
-4.622242 0.308929 -1.782377
-6.409662 2.242942 -1.830561
-6.691489 1.965339 -1.816896
-5.370076 2.025778 -1.829708
-5.498403 1.747925 -1.813584
-6.859913 1.535354 -1.784485
-7.203068 1.218191 -1.787031
-5.686621 1.401868 -1.796574
-5.926532 1.129415 -1.795080
-7.531168 0.786865 -1.778590
-7.823874 0.412196 -1.763419
-6.149172 0.762184 -1.787035
-6.349057 0.458348 -1.773791
-10.316140 3.614418 -1.832168
-10.982416 3.186228 -1.816813
-7.954816 2.970668 -1.834900
-8.306524 2.611786 -1.816829
-11.568763 2.606421 -1.805312
-12.339079 2.122789 -1.782019
-8.674491 2.146424 -1.801665
-9.091737 1.739372 -1.787431
-13.219301 4.680336 -1.823334
-14.064717 4.126739 -1.823491
-1.437864 0.169646 0.273862
-1.427932 0.138501 0.285007
-14.868102 3.422076 -1.792350
-16.128984 2.816512 -1.773098
-10.598268 2.664305 -1.801519
-11.096718 2.169553 -1.775605
-17.378298 1.983689 -1.752549
-18.623362 1.113697 -1.731952
-11.787636 1.571457 -1.761001
-12.379930 0.999500 -1.740852
-1.228642 0.408843 0.156616
-27.475922 8.034719 -0.683930
-18.782217 7.085505 -1.692029
-21.229881 6.697226 -1.668590
-53.931416 12.561313 -1.032138
-61.892796 10.748502 -0.621727
-22.239534 5.630548 -1.548572
-26.782972 5.216901 -1.620848
-1.264516 0.120892 0.200556
-1.415963 0.109870 0.213030
-28.865135 3.921113 -1.477521
-33.520851 2.683694 -1.505113
-1.286956 0.433149 0.291486
-1.342796 0.421049 0.309900
-55.841911 21.132608 1.077243
-1.352892 0.453674 0.237483
-1.336648 0.285541 0.316699
-1.419749 0.273502 0.336462
-1.346614 0.317402 0.248070
-94.522926 18.481541 4.169331
-4.598428 1.639894 -1.834328
-4.735928 1.416481 -1.833865
-9.586429 1.246053 -1.779413
-10.065333 0.783744 -1.770884
-4.868930 1.095904 -1.806412
-5.035380 0.860774 -1.794963
-2.020765 0.488386 -0.771068
-2.094592 0.419243 -0.777976
-5.195990 0.531021 -1.786910
-5.366403 0.276498 -1.779878
-2.117988 0.246202 -0.754991
-4.634119 0.324277 -1.787823
-6.397162 2.261128 -1.828874
-6.692668 1.988516 -1.819076
-5.368972 2.044679 -1.831678
-5.512725 1.771468 -1.820718
-6.855055 1.556898 -1.784485
-7.206829 1.242101 -1.789087
-5.700568 1.424405 -1.802921
-5.947253 1.152630 -1.803104
-7.530586 0.810735 -1.779085
-7.814780 0.436367 -1.761517
-6.152422 0.782245 -1.788835
-6.359038 0.479108 -1.777279
-10.302879 3.646149 -1.831812
-10.981814 3.223470 -1.818505
-7.963644 3.002570 -1.839459
-8.301999 2.639040 -1.817711
-11.572054 2.645417 -1.807261
-12.357669 2.165927 -1.785975
-8.667706 2.173666 -1.801665
-9.103531 1.771243 -1.791120
-13.195221 4.718490 -1.821893
-14.064983 4.174823 -1.825423
-1.437324 0.174162 0.273862
-1.427490 0.142986 0.285007
-14.851489 3.467403 -1.791567
-16.153299 2.873023 -1.777200
-10.606988 2.701995 -1.804799
-11.099511 2.206299 -1.777345
-17.383825 2.039679 -1.753891
-18.655508 1.174395 -1.735689
-11.794367 1.610106 -1.762975
-12.378698 1.038547 -1.741164
-1.227352 0.412701 0.156616
-27.354673 8.092725 -0.680812
-18.765446 7.146605 -1.692597
-19.955151 6.365703 -1.557392
-53.881966 12.728368 -1.031914
-54.688156 9.677457 -0.525607
-22.115530 5.673011 -1.540152
-26.766453 5.301011 -1.620848
-1.264130 0.124864 0.200556
-1.415611 0.114317 0.213030
-28.565956 3.971643 -1.460739
-33.438602 2.782911 -1.501343
-1.285589 0.437190 0.291486
-1.341467 0.425265 0.309900
-55.577267 21.232191 1.074148
-1.351460 0.457922 0.237483
-1.335744 0.289738 0.316699
-1.418882 0.277961 0.336462
-1.345611 0.321631 0.248070
-94.611404 18.807568 4.175502
-4.600202 1.656876 -1.837370
-4.738562 1.433461 -1.836873
-9.572750 1.274841 -1.777457
-10.051069 0.814437 -1.768643
-4.865464 1.111194 -1.806412
-5.028971 0.875966 -1.793528
-2.008653 0.492002 -0.766081
-2.066364 0.420689 -0.765727
-5.199881 0.547957 -1.789014
-5.367386 0.293448 -1.780559
-2.108118 0.251657 -0.750989
-4.620210 0.337965 -1.782377
-6.397249 2.283822 -1.831123
-6.684544 2.008983 -1.818531
-5.359003 2.060164 -1.830365
-5.498123 1.785895 -1.817475
-6.852007 1.578864 -1.785017
-7.197176 1.263752 -1.787545
-5.688719 1.440411 -1.800382
-5.926791 1.168068 -1.797549
-7.524150 0.833947 -1.778095
-7.821130 0.461345 -1.763419
-6.144262 0.800804 -1.787035
-6.363228 0.499508 -1.779023
-10.296929 3.680497 -1.832881
-10.977308 3.259623 -1.819520
-7.939630 3.021986 -1.835812
-8.295527 2.665698 -1.818152
-11.577137 2.684907 -1.809534
-12.352752 2.205080 -1.786279
-8.664618 2.201857 -1.802519
-9.094079 1.799083 -1.790300
-13.180331 4.759925 -1.821893
-14.048000 4.217861 -1.824871
-1.436770 0.178677 0.273862
-1.427033 0.147470 0.285007
-14.854022 3.517268 -1.793395
-16.136372 2.922357 -1.776235
-10.587027 2.732332 -1.802612
-11.094456 2.241547 -1.777693
-17.387192 2.095490 -1.755009
-18.639818 1.232232 -1.734444
-11.783388 1.646322 -1.761988
-12.389151 1.078604 -1.743348
-1.226049 0.416555 0.156616
-27.273560 8.162059 -0.679004
-18.750328 7.208396 -1.693353
-19.633354 6.331493 -1.530603
-53.818375 12.891995 -1.031376
-54.757866 9.867272 -0.526953
-22.004984 5.718287 -1.532803
-26.837711 5.402719 -1.626879
-1.263732 0.128835 0.200556
-1.415245 0.118765 0.213030
-28.298368 4.024873 -1.445808
-33.477459 2.892045 -1.503789
-1.284209 0.441227 0.291486
-1.340124 0.429478 0.309900
-55.308804 21.328909 1.070995
-1.350015 0.462166 0.237483
-1.334828 0.293934 0.316699
-1.418002 0.282417 0.336462
-1.344594 0.325857 0.248070
-94.692879 19.133186 4.181426
-4.607118 1.675812 -1.842693
-4.732259 1.447809 -1.836121
-9.578411 1.306262 -1.779413
-10.054334 0.846491 -1.769763
-4.865567 1.127333 -1.807886
-5.022514 0.891129 -1.792092
-2.029976 0.504297 -0.776886
-2.041732 0.422658 -0.755111
-5.199995 0.564503 -1.789715
-5.368315 0.310410 -1.781240
-2.096419 0.256808 -0.746187
-4.635666 0.353648 -1.789380
-6.397254 2.306541 -1.833372
-6.683728 2.031634 -1.820166
-5.359535 2.079756 -1.832991
-5.487084 1.801415 -1.815530
-6.852639 1.601721 -1.786614
-7.208401 1.289026 -1.791658
-5.674991 1.455880 -1.797209
-5.938027 1.189609 -1.802487
-7.515719 0.856905 -1.776611
-7.831278 0.486600 -1.766271
-6.147386 0.820886 -1.788835
-6.355903 0.519054 -1.777279
-10.292712 3.715520 -1.834307
-10.955677 3.290719 -1.817490
-7.919202 3.042692 -1.833077
-8.290825 2.692943 -1.819034
-11.560966 2.719443 -1.808235
-12.339926 2.242831 -1.785366
-8.661439 2.230055 -1.803373
-9.090301 1.828027 -1.790710
-13.185753 4.808803 -1.825064
-14.034682 4.261970 -1.824871
-1.436202 0.183190 0.273862
-1.426563 0.151952 0.285007
-14.844827 3.564379 -1.793657
-16.142740 2.975889 -1.778166
-10.595503 2.770094 -1.805892
-11.098940 2.278738 -1.779782
-17.404188 2.153063 -1.757693
-18.637838 1.290915 -1.734651
-11.795730 1.685881 -1.764948
-12.379799 1.116998 -1.742412
-1.224735 0.420405 0.156616
-27.287975 8.259821 -0.680314
-18.729446 7.267986 -1.693542
-19.584936 6.383910 -1.528076
-1.256166 0.278952 0.179419
-54.643978 10.024124 -0.525844
-21.801838 5.738443 -1.518106
-26.826477 5.488195 -1.627281
-1.263321 0.132804 0.200556
-1.414865 0.123210 0.213030
-28.084074 4.084255 -1.434003
-33.506012 3.000553 -1.505725
-56.642731 20.856256 4.168173
-1.338768 0.433686 0.309900
-55.023525 21.417582 1.067579
-1.348557 0.466405 0.237483
-1.333898 0.298126 0.316699
-1.417108 0.286870 0.336462
-1.343563 0.330079 0.248070
-94.765427 19.457855 4.187021
-4.584502 1.683807 -1.835089
-4.725914 1.462129 -1.835369
-9.572317 1.336069 -1.779022
-10.059458 0.878736 -1.771258
-4.858386 1.141742 -1.806412
-5.025206 0.907870 -1.794246
-2.031898 0.511603 -0.778548
-2.090548 0.438965 -0.777976
-5.194475 0.580401 -1.788313
-5.354172 0.326535 -1.776472
-2.095602 0.263392 -0.746187
-4.619833 0.367123 -1.783154
-6.386374 2.325299 -1.832248
-6.677313 2.052620 -1.820166
-5.351220 2.095886 -1.832334
-5.486794 1.820406 -1.817475
-6.849449 1.623692 -1.787147
-7.204317 1.311664 -1.791658
-5.681390 1.476611 -1.801017
-5.921201 1.205656 -1.798166
-7.501448 0.879117 -1.773642
-7.833589 0.511440 -1.767222
-6.140998 0.839661 -1.787635
-6.352334 0.538864 -1.776698
-10.264364 3.741730 -1.831099
-10.956611 3.328531 -1.819520
-7.945874 3.081748 -1.842194
-8.289745 2.721385 -1.820799
-11.554285 2.756209 -1.808560
-12.338653 2.282652 -1.786279
-8.658170 2.258250 -1.804227
-9.088353 1.857348 -1.791529
-13.153877 4.844018 -1.822469
-14.007960 4.301994 -1.822939
-1.435619 0.187701 0.273862
-1.426078 0.156433 0.285007
-14.843185 3.613360 -1.794963
-16.109886 3.022233 -1.775270
-10.596249 2.805907 -1.807714
-11.101370 2.315584 -1.781522
-17.401281 2.208236 -1.758141
-18.639643 1.349885 -1.735274
-11.804036 1.724957 -1.767250
-12.386065 1.156783 -1.743972
-1.223408 0.424250 0.156616
-27.311602 8.360678 -0.681935
-18.726904 7.334805 -1.695622
-20.360096 6.706303 -1.598839
-1.255284 0.282897 0.179419
-54.584686 10.190620 -0.525475
-21.666199 5.775441 -1.508767
-26.908760 5.593063 -1.634117
-1.262897 0.136772 0.200556
-1.414471 0.127654 0.213030
-27.836119 4.137317 -1.420229
-33.490452 3.105254 -1.505419
-56.586277 21.037586 4.168829
-1.337399 0.437889 0.309900
-54.762424 21.514206 1.064543
-1.347084 0.470639 0.237483
-1.332954 0.302315 0.316699
-1.416200 0.291321 0.336462
-1.342520 0.334299 0.248070
-94.762520 19.767706 4.189489
-4.575727 1.696897 -1.833568
-4.740785 1.482953 -1.843642
-9.566132 1.365853 -1.778630
-10.064476 0.911023 -1.772752
-4.863808 1.159203 -1.810096
-5.029679 0.924966 -1.797117
-2.009198 0.512326 -0.768575
-4.357149 0.900410 -1.812605
-5.188907 0.596272 -1.786910
-5.353120 0.343354 -1.776472
-2.100209 0.270745 -0.748588
-4.640701 0.383332 -1.792492
-6.361048 2.338659 -1.826625
-6.670831 2.073588 -1.820166
-5.349871 2.114794 -1.834304
-5.482844 1.838228 -1.818124
-6.842440 1.644745 -1.786614
-7.205865 1.335327 -1.793200
-5.684051 1.496417 -1.803556
-5.928571 1.226517 -1.801869
-7.525572 0.906015 -1.780569
-7.828066 0.535795 -1.766271
-6.147772 0.860311 -1.790634
-6.356330 0.559298 -1.778442
-10.256249 3.775327 -1.831812
-10.959298 3.366959 -1.821890
-7.923473 3.101688 -1.839003
-8.279302 2.746807 -1.820358
-11.553236 2.794368 -1.809859
-12.331420 2.321404 -1.786279
-8.658582 2.287458 -1.805935
-9.080556 1.885498 -1.791120
-13.166401 4.895713 -1.826794
-13.933809 4.327285 -1.814107
-1.435022 0.192210 0.273862
-1.425580 0.160912 0.285007
-14.841381 3.662362 -1.796269
-16.147131 3.081684 -1.781061
-10.593076 2.840722 -1.808808
-11.092114 2.350043 -1.781174
-17.419874 2.266261 -1.761049
-18.657133 1.410052 -1.737558
-11.804410 1.762917 -1.768237
-12.386305 1.196059 -1.744596
-1.222069 0.428091 0.156616
-27.331051 8.460580 -0.683431
-18.742636 7.409018 -1.699593
-20.388113 6.786535 -1.603219
-1.254389 0.286839 0.179419
-54.548485 10.361298 -0.525422
-21.570965 5.822598 -1.502643
-24.119965 5.095238 -1.443927
-1.262461 0.140739 0.200556
-1.414063 0.132097 0.213030
-27.625608 4.194584 -1.408655
-33.589893 3.220846 -1.511024
-56.342445 21.148540 4.156373
-1.336017 0.442088 0.309900
-54.491978 21.605698 1.061360
-1.345599 0.474868 0.237483
-1.331998 0.306501 0.316699
-1.415278 0.295768 0.336462
-1.341463 0.338515 0.248070
-1.406508 0.324196 0.263205
-4.589391 1.718499 -1.841932
-4.713095 1.490694 -1.833865
-9.573434 1.397629 -1.780979
-10.051782 0.941744 -1.770884
-4.860142 1.174476 -1.810096
-5.023076 0.940093 -1.795681
-2.005823 0.518158 -0.767744
-4.331043 0.909353 -1.801990
-5.190726 0.613027 -1.788313
-5.372659 0.361458 -1.783965
-4.488404 0.622850 -1.802624
-4.644983 0.398350 -1.794827
-6.384216 2.370103 -1.836184
-6.660609 2.093393 -1.819076
-5.346704 2.133005 -1.835617
-5.478837 1.856042 -1.818772
-6.839112 1.666695 -1.787147
-7.205436 1.358660 -1.794228
-5.681152 1.514762 -1.804190
-5.917235 1.243602 -1.799400
-7.515000 0.928674 -1.778590
-7.818591 0.559854 -1.764370
-6.141264 0.879063 -1.789435
-6.364073 0.580093 -1.781348
-10.253554 3.810978 -1.833594
-10.948668 3.401370 -1.821890
-7.915501 3.127285 -1.839459
-8.272483 2.773416 -1.820799
-11.553979 2.833018 -1.811483
-12.349316 2.364912 -1.790235
-8.651354 2.314646 -1.805935
-9.070754 1.913217 -1.790300
-13.145399 4.934959 -1.825929
-14.007127 4.398186 -1.826802
-1.434411 0.196717 0.273862
-1.425067 0.165391 0.285007
-14.849030 3.713818 -1.798882
-16.117874 3.128649 -1.778648
-10.597375 2.877629 -1.811358
-11.092381 2.386521 -1.782566
-17.424488 2.322574 -1.762391
-18.662525 1.469430 -1.738596
-11.802711 1.800600 -1.768895
-12.392316 1.235929 -1.746156
-1.220718 0.431929 0.156616
-27.350132 8.560699 -0.684927
-18.752533 7.481191 -1.702996
-20.412043 6.865752 -1.607263
-53.688953 13.576590 -1.032227
-54.492088 10.528090 -0.525105
-21.487183 5.872392 -1.497438
-24.051144 5.159748 -1.440308
-1.262013 0.144705 0.200556
-1.413641 0.136539 0.213030
-27.529438 4.268434 -1.403794
-33.655148 3.333789 -1.514896
-56.040615 21.236250 4.139851
-1.334622 0.446284 0.309900
-54.219627 21.694986 1.058149
-1.344101 0.479094 0.237483
-1.331029 0.310684 0.316699
-1.414341 0.300214 0.336462
-1.340393 0.342728 0.248070
-1.405482 0.328613 0.263205
-4.577062 1.730256 -1.838891
-4.718997 1.508825 -1.838377
-9.580630 1.429468 -1.783327
-10.062466 0.974611 -1.773499
-4.851017 1.188385 -1.807886
-5.025604 0.956890 -1.797835
-1.991908 0.521079 -0.761926
-4.344254 0.926289 -1.809339
-5.192491 0.629802 -1.789715
-5.373373 0.378459 -1.784646
-4.488238 0.637217 -1.803424
-4.625348 0.411413 -1.787045
-6.376738 2.390150 -1.836184
-6.670524 2.119493 -1.823979
-5.331229 2.146227 -1.832334
-5.471186 1.872642 -1.818124
-6.837581 1.689113 -1.788212
-7.197332 1.380577 -1.793200
-5.676365 1.532604 -1.804190
-5.920747 1.263743 -1.801869
-7.523574 0.953783 -1.781559
-7.832295 0.585524 -1.768173
-6.142245 0.898922 -1.790634
-6.341255 0.598194 -1.774954
-10.228643 3.838304 -1.831099
-10.941690 3.436925 -1.822567
-7.911055 3.154319 -1.840826
-8.271128 2.801875 -1.822563
-11.546934 2.869785 -1.811808
-12.341825 2.403700 -1.790235
-8.655344 2.344915 -1.808497
-9.072359 1.943326 -1.791939
-13.148325 4.983278 -1.828812
-14.002686 4.445145 -1.828182
-1.433786 0.201222 0.273862
-1.424541 0.169867 0.285007
-14.850739 3.763879 -1.800711
-16.117710 3.181173 -1.779855
-10.578807 2.908276 -1.809536
-11.090605 2.422602 -1.783610
-17.419071 2.377571 -1.762614
-18.657816 1.528049 -1.738596
-11.787255 1.836128 -1.767250
-12.390337 1.275050 -1.746468
-1.219355 0.435761 0.156616
-1.313823 0.441720 0.165694
-18.775089 7.558712 -1.707723
-21.069933 7.159879 -1.667916
-53.659595 13.748661 -1.032541
-54.429314 10.693451 -0.524709
-21.372562 5.913163 -1.489783
-23.859293 5.197239 -1.428245
-1.261552 0.148668 0.200556
-1.413205 0.140979 0.213030
-27.427160 4.340765 -1.398586
-33.696175 3.444739 -1.517546
-55.764896 21.332239 4.125165
-1.333213 0.450474 0.309900
-53.962097 21.788750 1.055171
-1.342589 0.483314 0.237483
-1.330046 0.314864 0.316699
-1.413391 0.304655 0.336462
-1.339309 0.346937 0.248070
-1.404443 0.333027 0.263205
-4.571604 1.744626 -1.838891
-4.708935 1.521960 -1.836121
-9.574154 1.459257 -1.782935
-10.071086 1.007360 -1.775740
-4.850864 1.204533 -1.809359
-5.026242 0.973364 -1.799270
-2.000776 0.530262 -0.766913
-4.346683 0.941059 -1.811789
-5.186771 0.645629 -1.788313
-5.349646 0.393790 -1.776472
-4.469903 0.648850 -1.796221
-4.636881 0.427052 -1.792492
-6.365613 2.408798 -1.835059
-6.660164 2.139274 -1.822890
-5.320967 2.161526 -1.831021
-5.472439 1.892261 -1.820718
-6.837845 1.712010 -1.789809
-7.191062 1.402817 -1.792686
-5.666041 1.548904 -1.802286
-5.913027 1.281547 -1.800635
-7.507095 0.975618 -1.778095
-7.828480 0.609981 -1.767697
-6.145048 0.919083 -1.792434
-6.348871 0.619001 -1.777860
-10.231245 3.876029 -1.833951
-10.936479 3.473058 -1.823583
-7.919151 3.186480 -1.845384
-8.265980 2.829097 -1.823445
-11.537863 2.906044 -1.811808
-12.347791 2.445118 -1.792365
-8.642288 2.370527 -1.807216
-9.068124 1.972227 -1.792349
-13.110438 5.016033 -1.825352
-13.990540 4.489717 -1.828458
-1.433147 0.205726 0.273862
-1.424000 0.174341 0.285007
-14.840761 3.811013 -1.800972
-16.119322 3.234119 -1.781303
-10.539327 2.932989 -1.803705
-11.092558 2.459543 -1.785351
-17.427263 2.434507 -1.764404
-18.676712 1.588647 -1.741087
-11.804799 1.876919 -1.771197
-12.405921 1.316013 -1.749588
-1.217980 0.439590 0.156616
-1.312429 0.445845 0.165694
-18.773376 7.626681 -1.709992
-21.416925 7.352445 -1.700939
-53.759335 13.954413 -1.035855
-54.387608 10.862831 -0.524603
-21.229109 5.945178 -1.479831
-23.731762 5.247731 -1.420605
-72.221756 10.218813 -0.159538
-1.412755 0.145418 0.213030
-27.314850 4.410903 -1.392799
-33.691151 3.551208 -1.517851
-55.463070 21.416645 4.108643
-1.331791 0.454661 0.309900
-53.682301 21.872057 1.051842
-1.341064 0.487529 0.237483
-1.329050 0.319041 0.316699
-1.412427 0.309094 0.336462
-1.338213 0.351142 0.248070
-1.403390 0.337437 0.263205
-4.555765 1.754935 -1.834328
-4.716483 1.540710 -1.841385
-9.555963 1.487180 -1.780196
-10.067872 1.038995 -1.775740
-4.848857 1.220230 -1.810096
-5.013993 0.987393 -1.795681
-1.995598 0.535558 -0.765250
-4.340134 0.953947 -1.810156
-5.192145 0.662907 -1.791117
-5.372765 0.412347 -1.785327
-4.464220 0.662331 -1.794620
-4.622672 0.440466 -1.787045
-6.352643 2.426708 -1.833372
-6.655243 2.160774 -1.823435
-5.317639 2.179680 -1.832334
-5.457523 1.906365 -1.817475
-6.836169 1.734445 -1.790874
-7.192311 1.426509 -1.794228
-5.668449 1.568753 -1.804825
-5.908971 1.300117 -1.800635
-7.505913 0.999460 -1.778590
-7.818778 0.633969 -1.765796
-6.136476 0.937496 -1.790634
-6.350705 0.639311 -1.779023
-10.224527 3.910275 -1.835020
-10.923637 3.506801 -1.823244
-7.910904 3.212081 -1.845840
-8.266278 2.858211 -1.825650
-11.528677 2.942278 -1.811808
-12.340049 2.483899 -1.792365
-8.647966 2.401364 -1.810205
-9.067622 2.001956 -1.793578
-13.111219 5.063644 -1.827947
-13.978251 4.534256 -1.828734
-1.432493 0.210227 0.273862
-1.423445 0.178814 0.285007
-14.845977 3.862140 -1.803323
-16.147997 3.292615 -1.786129
-10.592482 2.983828 -1.815732
-11.088620 2.495235 -1.786047
-17.449030 2.493506 -1.767759
-18.681538 1.648176 -1.742125
-11.798843 1.913996 -1.771197
-12.399759 1.354771 -1.749276
-1.216593 0.443414 0.156616
-27.384291 8.855494 -0.688731
-18.732748 7.678803 -1.708290
-21.403135 7.422947 -1.701781
-1.250685 0.302579 0.179419
-54.347324 11.032454 -0.524524
-21.185390 6.004743 -1.477841
-23.682051 5.314869 -1.418327
-72.355545 10.469776 -0.160382
-1.412291 0.149856 0.213030
-27.190546 4.478419 -1.386317
-33.800957 3.670095 -1.524067
-55.181713 21.507347 4.093564
-1.330356 0.458842 0.309900
-53.413597 21.958391 1.048689
-1.339526 0.491740 0.237483
-1.328041 0.323215 0.316699
-1.411449 0.313530 0.336462
-1.337103 0.355345 0.248070
-1.402323 0.341845 0.263205
-4.563993 1.774675 -1.840412
-4.711618 1.555520 -1.841385
-9.551243 1.517195 -1.780196
-10.058697 1.070011 -1.774620
-4.848598 1.236395 -1.811569
-5.018195 1.004569 -1.798553
-2.035889 0.553803 -0.785198
-4.347820 0.969900 -1.815055
-5.191892 0.679468 -1.791818
-5.345191 0.427254 -1.775791
-4.471169 0.677778 -1.798622
-4.626769 0.455497 -1.789380
-6.357505 2.451536 -1.837308
-6.641099 2.179299 -1.821255
-5.310764 2.196376 -1.832334
-5.455081 1.924744 -1.818772
-6.832551 1.756400 -1.791406
-7.195378 1.450599 -1.796284
-5.658021 1.584994 -1.802921
-5.893707 1.316234 -1.796932
-7.518090 1.025183 -1.782549
-7.812875 0.658217 -1.764845
-6.125965 0.955562 -1.788235
-6.341048 0.658500 -1.776698
-10.197517 3.936672 -1.832168
-10.914441 3.541706 -1.823583
-7.886375 3.230968 -1.842194
-8.253572 2.882892 -1.824768
-11.519375 2.978482 -1.811808
-12.337996 2.523831 -1.793278
-8.646017 2.430123 -1.811486
-9.061287 2.030433 -1.793578
-13.103251 5.084232 -1.827947
-13.989955 4.562314 -1.831494
-1.432161 0.212477 0.273862
-1.423163 0.181050 0.285007
-14.845644 3.886970 -1.804107
-16.127243 3.314801 -1.784198
-10.599127 3.003706 -1.817918
-11.096218 2.515235 -1.788135
-17.458858 2.522920 -1.769325
-18.680908 1.677692 -1.742333
-11.797769 1.932849 -1.771526
-12.397616 1.374245 -1.749276
-1.215895 0.445325 0.156616
-27.412186 8.912057 -0.690102
-18.726187 7.710499 -1.708858
-21.368860 7.448709 -1.699760
-73.428116 19.439554 -1.493184
-54.318176 11.115402 -0.524366
-21.237280 6.055582 -1.482740
-23.572435 5.329287 -1.411357
-72.364746 10.587185 -0.160512
-1.412054 0.152074 0.213030
-27.161814 4.517497 -1.385044
-30.485231 3.361091 -1.354195
-54.956486 21.518961 4.080058
-1.329634 0.460931 0.309900
-53.192387 21.965086 1.045740
-67.917229 23.684324 1.843247
-1.327532 0.325300 0.316699
-1.410955 0.315746 0.336462
-1.336543 0.357445 0.248070
-87.770569 19.899475 3.909334
-4.569797 1.785253 -1.844214
-4.705646 1.561769 -1.839881
-9.548848 1.532195 -1.780196
-10.058956 1.086014 -1.774993
-4.846650 1.244009 -1.811569
-5.012947 1.011729 -1.797117
-2.019280 0.552484 -0.777717
-4.342724 0.975948 -1.813422
-5.192674 0.687877 -1.792519
-5.353888 0.436368 -1.779197
-4.457429 0.682784 -1.793019
-4.626048 0.462764 -1.789380
-6.362582 2.465020 -1.840120
-6.646816 2.192708 -1.823979
-5.305567 2.203982 -1.831678
-5.452051 1.933309 -1.818772
-6.827919 1.766640 -1.790874
-7.194986 1.462277 -1.796798
-5.666463 1.597014 -1.806729
-5.902779 1.327947 -1.800635
-7.512633 1.036448 -1.781559
-7.827320 0.671765 -1.768648
-6.124456 0.965183 -1.788235
-6.343814 0.668845 -1.777860
-10.194988 3.954117 -1.832881
-10.908864 3.558844 -1.823583
-7.892082 3.247831 -1.844929
-8.254560 2.897774 -1.826091
-11.518501 2.997575 -1.812457
-12.334017 2.543207 -1.793278
-8.640310 2.443163 -1.811059
-9.069551 2.047217 -1.796037
-13.083529 5.123922 -1.827370
-13.977435 4.606860 -1.831770
-1.431487 0.216975 0.273862
-1.422587 0.185520 0.285007
-14.848686 3.937683 -1.806198
-16.157576 3.373909 -1.789266
-10.574526 3.032618 -1.815003
-11.099784 2.552705 -1.790224
-17.456745 2.578637 -1.769996
-18.711201 1.739638 -1.746070
-11.789694 1.969575 -1.771197
-12.406981 1.414725 -1.751459
-1.214490 0.449142 0.156616
-1.308887 0.456139 0.165694
-18.757000 7.792278 -1.714530
-21.302101 7.500632 -1.695885
-73.335793 19.661846 -1.492467
-54.273201 11.283966 -0.524234
-21.214317 6.121161 -1.482434
-23.267649 5.337595 -1.391521
-1.259841 0.162531 0.200556
-1.411569 0.156510 0.213030
-27.047108 4.585691 -1.379141
-30.504295 3.460200 -1.355724
-54.649227 21.596785 4.063143
-1.328179 0.465106 0.309900
-52.927479 22.050476 1.042646
-57.951565 20.417511 1.604432
-1.326504 0.329469 0.316699
-1.409956 0.320178 0.336462
-1.335414 0.361642 0.248070
-87.853699 20.208677 3.915505
-4.557296 1.796850 -1.841172
-4.705996 1.578285 -1.842137
-9.549791 1.563152 -1.781370
-10.071122 1.119307 -1.777982
-4.840921 1.258752 -1.810832
-5.017066 1.028936 -1.799988
-4.271101 1.213269 -1.849882
-4.337854 0.989191 -1.812605
-5.194197 0.704709 -1.793921
-5.361863 0.453934 -1.782603
-4.458880 0.697371 -1.794620
-4.628238 0.477653 -1.790936
-6.354806 2.484996 -1.840120
-6.647206 2.215986 -1.826159
-5.317746 2.228759 -1.838900
-5.442382 1.949169 -1.817475
-6.822335 1.788082 -1.790874
-7.188462 1.484490 -1.796284
-5.654131 1.612695 -1.804190
-5.902291 1.347316 -1.801869
-7.520846 1.061710 -1.784528
-7.832913 0.697016 -1.770550
-6.132689 0.986284 -1.791834
-6.347392 0.689368 -1.779604
-10.186176 3.987570 -1.833594
-10.905124 3.595551 -1.824936
-7.871062 3.268096 -1.842194
-8.247255 2.924339 -1.826532
-11.505212 3.032732 -1.811808
-12.331774 2.583148 -1.794191
-8.634469 2.470839 -1.811486
-9.064984 2.076132 -1.796447
-13.083921 5.171576 -1.829965
-13.945970 4.645142 -1.829286
-1.430798 0.221471 0.273862
-1.421997 0.189988 0.285007
-14.857299 3.990002 -1.809071
-16.131355 3.421379 -1.787335
-10.570608 3.067479 -1.816096
-11.087872 2.586675 -1.789528
-17.464277 2.635859 -1.771785
-18.711582 1.798971 -1.746693
-11.787336 2.007272 -1.771855
-12.404438 1.453919 -1.751771
-1.213073 0.452955 0.156616
-27.458130 9.118038 -0.693469
-18.778313 7.870462 -1.719257
-23.237652 8.261755 -1.871612
-73.221565 19.877964 -1.491258
-54.219868 11.450691 -0.523996
-21.135666 6.170380 -1.477688
-23.077744 5.370596 -1.379592
-1.259325 0.166488 0.200556
-1.411071 0.160943 0.213030
-26.991261 4.663456 -1.376711
-30.366289 3.541310 -1.349202
-54.390217 21.692120 4.049637
-1.326712 0.469276 0.309900
-52.658882 22.132862 1.039492
-57.804245 20.570000 1.602428
-1.325462 0.333635 0.316699
-1.408943 0.324605 0.336462
-1.334271 0.365835 0.248070
-87.943520 20.520388 3.922005
-4.568780 1.818088 -1.848776
-4.693982 1.590719 -1.839129
-9.552568 1.594457 -1.782935
-10.067555 1.150939 -1.777982
-4.842329 1.275402 -1.813042
-5.015639 1.045063 -1.800706
-4.234107 1.216937 -1.834090
-4.329382 1.001610 -1.810156
-5.193812 0.721290 -1.794622
-5.349166 0.469842 -1.778516
-4.454859 0.711076 -1.793820
-4.626715 0.492189 -1.790936
-6.350533 2.506370 -1.841244
-6.632908 2.234427 -1.823979
-5.293351 2.238017 -1.832334
-5.448707 1.970704 -1.822015
-6.825991 1.812013 -1.793536
-7.187549 1.507844 -1.797312
-5.654498 1.632051 -1.806094
-5.905450 1.367536 -1.804338
-7.519391 1.085614 -1.785022
-7.830686 0.721619 -1.770550
-6.131442 1.005861 -1.792434
-6.343292 0.709100 -1.779023
-10.182742 4.023187 -1.835377
-10.897518 3.631028 -1.825613
-7.862551 3.293564 -1.842650
-8.243545 2.952189 -1.827856
-11.499440 3.069886 -1.812457
-12.323598 2.621874 -1.794191
-8.637916 2.501244 -1.814048
-9.075589 2.108538 -1.800135
-13.082304 5.218552 -1.832271
-13.946334 4.693964 -1.831494
-1.430095 0.225965 0.273862
-1.421393 0.194454 0.285007
-14.867640 4.042944 -1.812207
-16.165182 3.481589 -1.792885
-10.576004 3.105143 -1.819012
-11.093113 2.624643 -1.791964
-17.489296 2.695913 -1.775588
-18.697922 1.856976 -1.745862
-11.788744 2.045662 -1.773170
-12.415505 1.494742 -1.754267
-1.211644 0.456764 0.156616
-25.869148 8.682280 -0.642156
-20.491043 8.666718 -1.898508
-23.224716 8.339425 -1.872791
-72.954407 20.051678 -1.486511
-54.167984 11.617640 -0.523785
-20.825583 6.150554 -1.454417
-22.920889 5.410226 -1.369942
-1.258795 0.170443 0.200556
-1.410558 0.165376 0.213030
-26.954849 4.744408 -1.375437
-29.890890 3.581495 -1.325357
-54.132992 21.786814 4.036263
-1.325231 0.473442 0.309900
-52.414215 22.223957 1.036719
-57.464573 20.652893 1.595779
-1.324407 0.337797 0.316699
-1.407916 0.329030 0.336462
-1.333115 0.370025 0.248070
-88.030312 20.832445 3.928422
-4.557907 1.830338 -1.846495
-4.694231 1.607232 -1.841385
-9.547512 1.624462 -1.782935
-10.056084 1.181667 -1.776488
-4.840092 1.291098 -1.813779
-5.019643 1.062326 -1.803577
-4.218057 1.226606 -1.828273
-4.349352 1.020494 -1.820771
-5.193374 0.737877 -1.795324
-5.334549 0.485517 -1.773748
-4.443567 0.723544 -1.789818
-4.634309 0.507676 -1.794827
-6.323043 2.518423 -1.835059
-6.627680 2.255869 -1.824525
-5.294966 2.258382 -1.835617
-5.446048 1.989096 -1.823313
-6.818405 1.832943 -1.793004
-7.184668 1.530816 -1.797826
-5.651160 1.650349 -1.806729
-5.899271 1.385656 -1.803721
-7.519775 1.109812 -1.786012
-7.828380 0.746218 -1.770550
-6.120729 1.023830 -1.790034
-6.341033 0.729026 -1.779023
-10.164574 4.052960 -1.834307
-10.889795 3.666498 -1.826290
-7.862913 3.322832 -1.845384
-8.234229 2.978075 -1.827856
-11.497354 3.108077 -1.813756
-12.311435 2.659753 -1.793583
-8.641255 2.531699 -1.816610
-9.065107 2.136154 -1.799315
-13.043831 5.250713 -1.828812
-13.933396 4.738386 -1.831770
-1.429378 0.230457 0.273862
-1.420775 0.198919 0.285007
-14.851044 4.088571 -1.811684
-16.121180 3.525195 -1.788783
-10.568081 3.138915 -1.819376
-11.084813 2.659478 -1.791964
-17.496441 2.753335 -1.777377
-18.717724 1.918306 -1.748561
-11.788085 2.083728 -1.774157
-12.412708 1.533975 -1.754579
-1.210203 0.460568 0.156616
-25.678883 8.708445 -0.636794
-20.449072 8.724777 -1.896995
-20.263363 7.351518 -1.608947
-58.999710 16.410574 -1.163500
-54.152714 11.792416 -0.524076
-20.764139 6.203336 -1.451049
-22.773716 5.451223 -1.360962
-1.258254 0.174397 0.200556
-1.410032 0.169806 0.213030
-26.928020 4.826936 -1.374743
-29.568213 3.637360 -1.309358
-53.853523 21.871058 4.021314
-1.323737 0.477603 0.309900
-52.162148 22.310560 1.033828
-57.156910 20.745415 1.589905
-1.323340 0.341956 0.316699
-1.406876 0.333451 0.336462
-1.331946 0.374211 0.248070
-88.084915 21.137756 3.933524
-4.548713 1.843240 -1.844974
-4.692667 1.623164 -1.842889
-9.553951 1.656488 -1.785283
-10.079639 1.216477 -1.781717
-4.832428 1.305308 -1.812305
-4.999838 1.074642 -1.797117
-4.210700 1.238803 -1.826610
-4.337233 1.032091 -1.816688
-5.187325 0.753631 -1.793921
-5.366712 0.505283 -1.786009
-4.448497 0.738742 -1.793019
-4.630858 0.522035 -1.794048
-6.322213 2.541164 -1.837308
-6.642425 2.284106 -1.831063
-5.293041 2.277268 -1.837587
-5.434438 2.004254 -1.821367
-6.812613 1.854353 -1.793004
-7.185496 1.554584 -1.799368
-5.651397 1.669729 -1.808633
-5.896741 1.404614 -1.804338
-7.512422 1.132838 -1.785022
-7.822130 0.770439 -1.769599
-6.117483 1.043052 -1.790034
-6.340613 0.749159 -1.779604
-10.173679 4.093739 -1.838585
-10.872621 3.698797 -1.825275
-7.868537 3.354438 -1.849487
-8.239507 3.009237 -1.831384
-11.485631 3.143655 -1.813432
-12.306880 2.699254 -1.794191
-8.620158 2.554908 -1.813621
-9.065972 2.166420 -1.800955
-13.049258 5.300645 -1.832271
-13.910944 4.779575 -1.830666
-1.428647 0.234946 0.273862
-1.420143 0.203381 0.285007
-14.845762 4.137349 -1.812729
-16.148802 3.584367 -1.793609
-10.550639 3.169820 -1.817918
-11.101295 2.700284 -1.796489
-17.501436 2.810515 -1.778943
-18.739302 1.979989 -1.751468
-11.789245 2.122167 -1.775473
-12.417629 1.574185 -1.756139
-1.208750 0.464368 0.156616
-25.494387 8.735446 -0.631619
-20.456291 8.803973 -1.900588
-20.262632 7.423342 -1.610969
-72.418999 20.394606 -1.477015
-54.082203 11.955164 -0.523627
-21.263577 6.426058 -1.492692
-22.682770 5.504941 -1.355868
-1.257700 0.178349 0.200556
-1.409491 0.174235 0.213030
-26.830242 4.896376 -1.369882
-29.641865 3.740915 -1.313740
-53.581451 21.956804 4.006891
-1.322230 0.481759 0.309900
-51.910057 22.395815 1.030938
-56.866135 20.842405 1.584440
-1.322259 0.346112 0.316699
-1.405821 0.337870 0.336462
-1.330764 0.378394 0.248070
-88.004478 21.411079 3.932948
-4.539483 1.856103 -1.843453
-4.684039 1.636694 -1.841385
-9.550632 1.686841 -1.785675
-10.054311 1.245535 -1.777608
-4.826512 1.319983 -1.811569
-5.001915 1.091511 -1.799270
-4.199824 1.249908 -1.823286
-4.328637 1.044458 -1.814239
-5.192337 0.771061 -1.796726
-5.346373 0.520409 -1.779197
-4.466013 0.756194 -1.801823
-4.623701 0.535975 -1.791714
-6.321302 2.563927 -1.839557
-6.638856 2.306212 -1.832152
-5.287591 2.294646 -1.838243
-5.435219 2.023926 -1.823961
-6.812324 1.877304 -1.794601
-7.180576 1.577151 -1.799368
-5.646124 1.687476 -1.808633
-5.897853 1.424449 -1.806190
-7.512654 1.157037 -1.786012
-7.829337 0.795959 -1.771976
-6.108541 1.061263 -1.788235
-6.334427 0.768630 -1.778442
-10.138907 4.116744 -1.834307
-10.875873 3.738029 -1.827983
-7.856174 3.378367 -1.849031
-8.230013 3.035108 -1.831384
-11.464293 3.176536 -1.811483
-12.284827 2.734926 -1.792061
-8.617700 2.583677 -1.814902
-9.061025 2.195347 -1.801364
-13.023391 5.337845 -1.830830
-13.899605 4.824547 -1.831218
-1.427902 0.239433 0.273862
-1.419497 0.207842 0.285007
-14.847951 4.188301 -1.814819
-16.116148 3.630318 -1.790955
-10.546269 3.204679 -1.819012
-11.096583 2.736081 -1.797185
-17.523893 2.870671 -1.782522
-18.723101 2.037788 -1.750430
-11.792216 2.160993 -1.777117
-12.412623 1.613189 -1.756139
-1.207285 0.468163 0.156616
-25.347763 8.774416 -0.627691
-20.477821 8.889661 -1.905693
-20.257912 7.493855 -1.612654
-72.364174 20.624762 -1.477239
-54.058033 12.128071 -0.523811
-21.247095 6.493999 -1.492998
-22.504488 5.536787 -1.344744
-1.257133 0.182299 0.200556
-1.408937 0.178662 0.213030
-26.828465 4.983209 -1.370692
-29.406097 3.805251 -1.302225
-53.318600 22.044880 3.993122
-1.320710 0.485911 0.309900
-51.665272 22.482901 1.028164
-56.569691 20.935694 1.578838
-1.321165 0.350264 0.316699
-1.404753 0.342285 0.336462
-1.329569 0.382573 0.248070
-1.395050 0.370407 0.263205
-4.533630 1.870355 -1.843453
-4.684127 1.653225 -1.843642
-9.551071 1.717894 -1.786849
-10.065947 1.279058 -1.780597
-4.825920 1.336151 -1.813042
-5.009408 1.109586 -1.803577
-4.190661 1.261492 -1.820792
-4.328886 1.058899 -1.815872
-5.188039 0.787080 -1.796025
-5.359686 0.538635 -1.784646
-4.456398 0.768933 -1.798622
-4.614673 0.549668 -1.788601
-6.320310 2.586708 -1.841806
-6.624306 2.324536 -1.829973
-5.287264 2.314307 -1.840869
-5.435929 2.043623 -1.826556
-6.810102 1.899746 -1.795666
-7.188802 1.602599 -1.802967
-5.637168 1.704092 -1.807364
-5.895198 1.443415 -1.806807
-7.501329 1.179403 -1.784033
-7.819067 0.819768 -1.770074
-6.116440 1.082491 -1.791834
-6.326280 0.787840 -1.776698
-10.140479 4.154580 -1.837159
-10.852894 3.768325 -1.825952
-7.850873 3.405372 -1.850399
-8.224096 3.062299 -1.832266
-11.459956 3.214149 -1.812457
-12.280031 2.774369 -1.792670
-8.613276 2.611882 -1.815756
-9.055986 2.224264 -1.801774
-13.032143 5.389369 -1.834866
-13.886250 4.868843 -1.831494
-1.427143 0.243918 0.273862
-1.418837 0.212300 0.285007
-14.846154 4.238212 -1.816387
-16.135647 3.687960 -1.794816
-10.536150 3.237795 -1.819012
-11.108963 2.776133 -1.801014
-17.528509 2.928022 -1.784088
-18.750217 2.100317 -1.753959
-11.793124 2.199492 -1.778433
-12.419246 1.653717 -1.758011
-1.205809 0.471954 0.156616
-25.231356 8.823078 -0.624761
-20.464373 8.960356 -1.907206
-22.066540 8.239299 -1.777936
-72.466156 20.900267 -1.481136
-54.066467 12.308473 -0.524445
-21.287533 6.579632 -1.497897
-22.401768 5.586311 -1.338847
-1.256554 0.186248 0.200556
-1.408369 0.183088 0.213030
-26.796984 5.064487 -1.369766
-29.437563 3.903353 -1.304466
-53.053871 22.130747 3.979223
-1.319177 0.490058 0.309900
-51.402149 22.560623 1.025099
-56.273232 21.027327 1.573237
