ply
format ascii 1.0
element vertex 1698
property float x
property float y
property float z
end_header
1.435511 5.223999 -2.026380
0.968664 9.011066 -1.658880
0.551996 9.887855 -1.734275
1.095114 5.405262 -2.014147
0.834252 5.642570 -2.023945
1.045302 4.627273 -1.988682
0.810802 4.758543 -1.981641
0.472659 5.865231 -2.034400
0.175158 6.049814 -2.025781
0.495486 4.906020 -1.977095
0.240829 5.078233 -1.973018
2.519702 7.645336 -2.199406
2.202707 8.078208 -2.213003
2.180125 6.116307 -2.091665
1.875453 6.322100 -2.096370
1.666802 8.142784 -2.138554
1.216938 8.146568 -2.034806
1.499579 6.598995 -2.101229
1.181081 6.928178 -2.117868
0.748443 8.710509 -2.077446
0.300933 9.020563 -2.054828
0.765747 7.258718 -2.133759
0.397244 7.549244 -2.136541
3.326947 10.104139 -1.779056
2.794871 10.353082 -1.694614
3.217509 9.126806 -2.112500
2.788447 9.502588 -2.087206
3.019649 14.655115 -2.316189
2.421364 15.907054 -2.331591
2.177471 9.558749 -1.991253
1.504108 8.746515 -1.707521
5.730557 17.185959 -2.419501
5.021562 18.420599 -2.441420
0.991565 8.692605 0.629707
0.539498 8.587737 0.696022
4.160651 19.734550 -2.439505
3.418278 22.078077 -2.498465
2.223062 9.616434 -1.605455
2.451610 13.966744 -2.283442
2.328767 24.379984 -2.540354
1.055457 26.056946 -2.506555
1.719388 14.997459 -2.295125
0.986324 16.088163 -2.324892
12.075957 36.223770 -1.355883
0.387709 1.330762 0.165694
9.915882 27.827778 -2.591120
9.930909 33.733742 -2.759516
2.008531 9.526997 -0.009855
1.533809 9.796462 0.076644
2.241267 9.675331 -0.549764
5.313897 30.334497 -1.856609
0.930314 9.836044 0.157298
0.383250 8.863653 0.248707
3.610940 30.928797 -1.593957
1.931573 31.579678 -1.403618
2.768237 8.298192 0.777039
2.326334 8.422006 0.873942
9.761530 27.380049 0.629929
2.525411 8.480785 0.406530
1.578661 7.507954 0.849576
1.297214 8.215642 0.981808
1.926965 8.290770 0.473087
1.424114 7.953073 0.536449
1.694591 5.043403 -2.014554
1.451915 5.219463 -2.026380
0.987006 8.920283 -1.641269
0.579187 9.817411 -1.721200
1.116308 5.421810 -2.022250
0.851703 5.638075 -2.023227
1.057752 4.615112 -1.984526
0.827562 4.766775 -1.986541
0.490917 5.861852 -2.033699
0.193953 6.041714 -2.023056
0.511095 4.906260 -1.977896
0.257868 5.101378 -1.983134
2.547993 7.650115 -2.203342
2.229592 8.076818 -2.214638
2.197387 6.104105 -2.089696
1.896378 6.319806 -2.097667
1.695163 8.150712 -2.142281
1.243665 8.150352 -2.036862
1.517702 6.583173 -2.097421
1.200609 6.911305 -2.113548
0.776691 8.717764 -2.079920
0.329661 9.031224 -2.057681
0.787268 7.244901 -2.130160
0.421257 7.553693 -2.138285
3.321117 9.981690 -1.757668
2.686245 9.822924 -1.601864
3.238266 9.094663 -2.107030
2.813333 9.476939 -2.083236
2.125144 10.191008 -1.566925
2.473726 15.914997 -2.334025
2.211048 9.567081 -1.994669
1.565790 8.940453 -1.749730
5.780709 17.156624 -2.417771
5.079928 18.406643 -2.441696
0.940629 8.038913 0.597773
0.565720 8.574042 0.695335
4.221789 19.717506 -2.438982
3.487925 22.069191 -2.498706
2.259616 9.636190 -1.610556
2.495474 13.958974 -2.283442
2.404159 24.360680 -2.539012
1.156465 26.502651 -2.553475
1.764384 14.974356 -2.292166
1.037107 16.088928 -2.325516
12.207590 36.238667 -1.358177
0.391887 1.329538 0.165694
10.020823 27.845181 -2.596036
10.012432 33.620228 -2.752270
1.928675 9.014540 0.001745
1.635029 10.240055 0.070651
2.284103 9.720624 -0.553897
5.426955 30.417858 -1.863444
0.948221 9.703726 0.157951
0.410224 8.842425 0.248611
3.718377 31.002539 -1.598934
2.027097 31.515648 -1.400663
2.856672 8.472711 0.789758
2.323029 8.307022 0.865349
11.674427 32.408951 0.708466
2.530912 8.401911 0.404845
1.618728 7.578911 0.856145
1.326743 8.235128 0.984052
2.315859 9.803145 0.522369
1.442050 7.909220 0.534803
1.711029 5.039803 -2.015314
1.468797 5.216663 -2.027133
1.031856 9.061297 -1.670228
0.606874 9.762589 -1.711115
1.131388 5.409185 -2.018567
0.871068 5.646449 -2.027534
1.073510 4.617075 -1.987019
0.841299 4.756954 -1.983274
0.510011 5.867742 -2.036503
0.213281 6.052353 -2.027143
0.525889 4.899167 -1.975495
0.273803 5.098703 -1.982356
2.563977 7.618451 -2.196032
2.253417 8.064208 -2.213003
2.221772 6.111354 -2.094948
1.913510 6.304755 -2.094424
1.721568 8.149116 -2.143346
1.270720 8.155958 -2.039433
1.537936 6.576527 -2.096786
1.225884 6.928118 -2.120337
0.802235 8.695990 -2.074971
0.358458 9.041792 -2.060533
0.810461 7.246183 -2.131360
0.445408 7.559975 -2.140610
3.401735 10.116585 -1.785472
2.672798 9.652849 -1.573092
3.264828 9.078952 -2.105663
2.811392 9.361475 -2.058095
2.201005 10.388818 -1.601351
2.524629 15.913008 -2.334938
2.249209 9.594309 -2.002355
1.605030 8.999118 -1.763253
5.845466 17.170216 -2.422672
5.141438 18.403954 -2.443628
0.969794 8.067640 0.599331
0.596998 8.637973 0.699112
2.080709 9.633389 -1.080663
3.561315 22.083607 -2.501843
2.339094 9.833624 -1.649551
1.850832 10.128764 -1.597044
2.484948 24.394526 -2.543709
1.241353 26.534657 -2.557212
1.810935 14.964823 -2.291508
1.087903 16.089533 -2.326140
12.337500 36.247425 -1.360225
0.396062 1.328300 0.165694
10.106883 27.809822 -2.595658
10.069260 33.426384 -2.737950
1.927745 8.875650 0.004791
1.701379 10.448127 0.067800
7.952982 33.104637 -2.401172
5.554788 30.579353 -1.875641
0.988179 9.792208 0.157489
0.436603 8.811126 0.248468
3.805679 30.909462 -1.594189
2.127685 31.533039 -1.401886
2.887168 8.475019 0.790545
2.405529 8.501321 0.881460
9.908699 27.250546 0.628878
2.659431 8.732769 0.412906
1.654538 7.628283 0.860861
1.359258 8.272204 0.987979
2.166360 9.051733 0.498201
1.477994 7.965595 0.537354
1.729287 5.041390 -2.018356
1.485178 5.212023 -2.027133
1.065221 9.098907 -1.678447
0.630782 9.652780 -1.690569
1.149560 5.411056 -2.020777
0.887673 5.636304 -2.024663
1.090145 4.622521 -1.991175
0.855610 4.750690 -1.981641
0.528970 5.871706 -2.038606
0.231972 6.042256 -2.023738
0.541699 4.901133 -1.977095
0.289819 5.097817 -1.982356
2.585402 7.603099 -2.193784
2.276667 8.049678 -2.210824
2.234379 6.086637 -2.088383
1.933306 6.298712 -2.094424
1.747979 8.147435 -2.144411
1.295145 8.144287 -2.037376
1.562146 6.586414 -2.101864
1.247973 6.926107 -2.120954
0.829359 8.691498 -2.074477
0.386473 9.030915 -2.058156
0.833220 7.243601 -2.131360
0.469267 7.560449 -2.141191
3.406081 10.025790 -1.770144
2.773204 9.897023 -1.618112
3.293333 9.068650 -2.105663
2.866076 9.436660 -2.077943
2.118182 9.851574 -1.512037
2.573355 15.897191 -2.333721
2.288019 9.623291 -2.010468
1.620209 8.920803 -1.747681
5.900038 17.153633 -2.422961
5.196025 18.376266 -2.441972
0.978827 7.935736 0.593003
0.666075 9.241606 0.733907
2.104953 9.599704 -1.077006
3.631972 22.080149 -2.502808
2.427768 10.063128 -1.694740
1.887268 10.148083 -1.601569
2.561382 24.384617 -2.543486
1.326771 26.572350 -2.561572
1.859923 14.974717 -2.294139
1.138729 16.089979 -2.326764
12.458503 36.229256 -1.361126
8.222466 29.139950 -0.735430
10.194908 27.779795 -2.595847
10.151649 33.320202 -2.731379
2.119604 9.603259 -0.012049
1.745176 10.509831 0.066902
8.057917 33.083363 -2.401479
5.694914 30.801178 -1.891993
1.034018 9.930250 0.156775
0.463593 8.795727 0.248401
3.878860 30.709187 -1.583193
2.220224 31.432549 -1.397096
2.876453 8.358450 0.783071
2.549044 8.906233 0.914450
10.997559 29.944134 0.671270
2.776068 9.016994 0.419874
1.683721 7.646384 0.862882
1.380724 8.240382 0.985361
2.364063 9.734043 0.520602
1.537638 8.147566 0.545170
1.743278 5.030696 -2.016075
1.500539 5.203764 -2.025628
1.096205 9.114981 -1.682360
0.663821 9.691922 -1.698413
1.168561 5.416494 -2.024460
0.907394 5.646397 -2.029688
1.102934 4.612006 -1.987851
0.873091 4.762359 -1.988174
0.547783 5.873743 -2.040009
0.251238 6.049014 -2.026462
0.558397 4.910326 -1.981898
0.305836 5.096882 -1.982356
2.609910 7.596751 -2.194346
2.303522 8.048038 -2.212458
2.257476 6.090198 -2.092322
1.955858 6.301652 -2.097667
1.775237 8.149431 -2.146541
1.323463 8.157357 -2.042003
1.582835 6.581472 -2.101864
1.268049 6.912789 -2.117868
0.857646 8.698489 -2.076951
0.414181 9.014130 -2.054353
0.855747 7.239053 -2.130760
0.493730 7.570397 -2.144679
3.453012 10.059674 -1.778699
2.799494 9.871181 -1.615066
3.323840 9.063737 -2.107030
2.887764 9.401479 -2.071768
2.099303 9.619415 -1.474038
2.622659 15.885125 -2.333113
2.353892 9.762218 -2.043347
1.650686 8.929151 -1.750550
5.947372 17.116329 -2.420078
5.257524 18.373190 -2.443904
1.006323 7.952431 0.593976
0.704332 9.366925 0.741233
2.133356 9.585305 -1.075961
3.702295 22.074503 -2.503532
2.454648 10.036363 -1.691096
1.959965 10.360879 -1.640901
2.639699 24.392258 -2.545275
1.410445 26.572021 -2.561987
1.906955 14.968800 -2.294139
1.188984 16.082382 -2.326140
12.597219 36.261654 -1.364240
8.326550 29.158199 -0.736864
10.307090 27.814823 -2.602654
10.251004 33.271008 -2.729862
2.202830 9.830551 -0.017424
1.759103 10.389887 0.068433
8.168037 33.083042 -2.403469
5.818094 30.924358 -1.901643
1.043134 9.726164 0.157790
0.489320 8.758279 0.248228
3.968085 30.641411 -1.579952
2.322589 31.475220 -1.399644
2.978037 8.564046 0.798019
2.587447 8.934604 0.917365
10.423287 28.111841 0.643271
2.696581 8.658564 0.411540
1.754052 7.845119 0.880566
1.404629 8.224222 0.984239
2.367104 9.616001 0.517005
1.669587 8.706262 0.568784
1.761551 5.032167 -2.019117
1.517900 5.202588 -2.027133
1.114263 9.027820 -1.665532
0.696832 9.727032 -1.705511
1.180288 5.389209 -2.014884
0.922191 5.625084 -2.022510
1.118732 4.613815 -1.990344
0.885771 4.747017 -1.982458
0.565480 5.864538 -2.037204
0.269708 6.035042 -2.021694
0.571596 4.890354 -1.973894
0.321739 5.094056 -1.981578
2.637573 7.599381 -2.197719
2.328793 8.040763 -2.212458
2.275258 6.079542 -2.091009
1.971729 6.282825 -2.093127
1.802940 8.153219 -2.149203
1.349701 8.156974 -2.043031
1.604415 6.580150 -2.103133
1.291812 6.920000 -2.121571
0.884160 8.688043 -2.074971
0.441868 8.999200 -2.051025
0.879431 7.243902 -2.133160
0.516765 7.557351 -2.141191
3.454728 9.963320 -1.762302
2.780904 9.687902 -1.583924
3.346166 9.036832 -2.102928
2.889746 9.302866 -2.050597
2.128647 9.608922 -1.473389
2.673522 15.882656 -2.334025
2.392988 9.788918 -2.051033
1.684786 8.956643 -1.757516
6.001770 17.099426 -2.420366
5.313022 18.348970 -2.442800
1.037623 7.996757 0.596313
0.736312 9.398514 0.743178
2.166108 9.590155 -1.077528
3.769295 22.049063 -2.501843
2.471346 9.969467 -1.679799
1.965317 10.211486 -1.615144
2.718310 24.401623 -2.547288
1.494460 26.577391 -2.563025
1.953710 14.960781 -2.293810
1.240540 16.092356 -2.328324
12.721677 36.252064 -1.365551
10.419942 36.081829 -0.962441
10.404206 27.808405 -2.605301
10.351922 33.227222 -2.728852
2.141338 9.422175 -0.008197
1.795420 10.405997 0.068143
7.709179 30.815580 -2.226029
6.434375 33.630661 -2.087946
1.059969 9.601614 0.158403
0.513250 8.692798 0.247922
4.059036 30.589211 -1.577638
2.423728 31.497644 -1.401172
2.954915 8.413572 0.788184
2.635494 8.995378 0.922889
10.482032 28.000328 0.642045
2.728528 8.665319 0.411904
1.707577 7.530782 0.853787
1.426435 8.196216 0.981995
2.193875 8.802197 0.490755
1.710492 8.771623 0.571746
1.775475 5.021386 -2.016835
1.532687 5.192454 -2.024876
1.149168 9.074848 -1.675707
0.721591 9.644447 -1.690195
1.201744 5.405420 -2.022987
0.942253 5.636900 -2.028252
1.131444 4.603221 -1.987019
0.902664 4.754985 -1.987357
0.583900 5.862733 -2.037204
0.289156 6.045437 -2.025781
0.587868 4.895809 -1.977095
0.338078 5.098538 -1.983912
2.663355 7.596486 -2.199406
2.355647 8.038953 -2.214093
2.292321 6.067071 -2.089039
1.992021 6.278406 -2.093776
1.828544 8.147516 -2.149203
1.375949 8.156508 -2.044059
1.623230 6.567719 -2.100594
1.311804 6.906557 -2.118485
0.906456 8.638983 -2.063096
0.469753 8.990005 -2.049124
0.902182 7.241103 -2.133160
0.539983 7.548053 -2.138866
3.450632 9.852208 -1.743053
2.909409 10.020098 -1.644854
3.382781 9.048142 -2.108398
2.947934 9.386875 -2.072650
2.157946 9.598339 -1.472739
2.724728 15.881975 -2.335243
2.433223 9.819259 -2.059573
1.753145 9.164839 -1.803004
6.029943 17.093708 -2.420943
5.343490 18.346310 -2.443628
1.043785 7.947602 0.593976
0.751841 9.407301 0.743751
2.184284 9.600267 -1.079357
3.809289 22.074429 -2.505704
2.482673 9.948412 -1.676519
1.964685 10.121342 -1.599480
2.758436 24.413118 -2.549078
1.535639 26.565081 -2.561987
1.978516 14.967470 -2.295455
1.264904 16.078571 -2.326452
12.801246 36.296097 -1.368337
8.486665 29.197363 -0.739420
10.456301 27.814386 -2.607570
10.432629 33.302227 -2.736939
2.167420 9.467498 -0.009317
1.827999 10.497774 0.066876
7.744381 30.751236 -2.221895
6.495100 33.661671 -2.090761
1.071402 9.568147 0.158564
0.526673 8.687990 0.247903
4.112693 30.624353 -1.580068
2.479852 31.579430 -1.405554
3.065240 8.681515 0.807197
2.568657 8.713650 0.900640
10.882367 28.928755 0.656789
2.803138 8.855635 0.416549
1.718503 7.524209 0.853450
1.321217 7.509130 0.916731
2.213109 8.820051 0.491449
1.592081 8.086194 0.543113
1.783988 5.020331 -2.017596
1.542398 5.195378 -2.027133
1.167245 9.102201 -1.681577
0.728362 9.529651 -1.668529
1.210233 5.403526 -2.022987
0.948687 5.620676 -2.022510
1.138673 4.601438 -1.987019
0.910132 4.753561 -1.987357
0.593305 5.863671 -2.037905
0.298990 6.052490 -2.028506
0.594864 4.889425 -1.974694
0.345624 5.090645 -1.980800
2.674640 7.590485 -2.198844
2.366656 8.029700 -2.212458
2.305235 6.072281 -2.092322
2.004151 6.282488 -2.096370
1.844355 8.157787 -2.152930
1.390989 8.167681 -2.047657
1.635869 6.574356 -2.103768
1.325809 6.921315 -2.124040
0.917914 8.618286 -2.058148
0.484465 9.000898 -2.051976
0.913555 7.239678 -2.133160
0.551838 7.547196 -2.138866
3.494399 9.926528 -1.758381
2.829263 9.684158 -1.585616
3.395609 9.039176 -2.107486
2.974907 9.421331 -2.081913
2.175665 9.606481 -1.474688
2.749001 15.873777 -2.334634
2.298133 9.218637 -1.925068
1.760959 9.127457 -1.795627
6.086946 17.084002 -2.422384
5.402769 18.335136 -2.444456
1.073383 7.977925 0.595631
0.712657 8.549056 0.694534
2.221648 9.624252 -1.083537
3.882372 22.083864 -2.508358
2.514400 9.942469 -1.676883
2.014919 10.209844 -1.616536
2.837891 24.428017 -2.551762
1.620750 26.587925 -2.564894
2.026597 14.969000 -2.296770
1.314459 16.062704 -2.324580
12.931328 36.300877 -1.370303
8.539541 29.038195 -0.735118
10.562036 27.829782 -2.612487
10.542597 33.286396 -2.738455
2.258461 9.721465 -0.015319
5.128449 29.178808 -0.183549
7.834019 30.699709 -2.219752
6.652481 33.905495 -2.108855
1.205424 10.446615 0.154102
0.556146 8.722224 0.248075
4.193553 30.500525 -1.573587
2.545075 31.151402 -1.384053
3.166819 8.878407 0.821621
2.559897 8.583133 0.890820
11.014460 29.002821 0.658483
2.815238 8.797228 0.415365
1.739393 7.507133 0.852440
1.335842 7.453950 0.911869
2.281653 8.971804 0.496624
1.874556 9.386959 0.597910
1.799750 5.014702 -2.017596
1.561858 5.201171 -2.031645
1.232908 9.374520 -1.737148
0.762210 9.578251 -1.678241
1.223837 5.385207 -2.017094
0.966339 5.617668 -2.022510
1.155836 4.608410 -1.992006
0.926078 4.756059 -1.989807
0.612127 5.865503 -2.039307
0.317911 6.049643 -2.027825
0.611404 4.896620 -1.978696
0.361250 5.084019 -1.978465
2.690029 7.558565 -2.191534
2.395677 8.035146 -2.216272
2.321567 6.057964 -2.089696
2.022730 6.272555 -2.095073
1.873031 8.165097 -2.156657
1.416640 8.163272 -2.047657
1.655101 6.563672 -2.101864
1.346832 6.913379 -2.122806
0.948457 8.646171 -2.066065
0.512109 8.987692 -2.049124
0.936544 7.238663 -2.133759
0.576240 7.554969 -2.141773
3.447891 9.698746 -1.716675
2.916716 9.870072 -1.620482
3.423988 9.028464 -2.107486
3.023315 9.471457 -2.096027
2.211196 9.622663 -1.478585
2.798854 15.865065 -2.334634
2.345948 9.285203 -1.941721
1.762876 8.983497 -1.766122
6.142610 17.070375 -2.423249
5.461475 18.321869 -2.445008
1.113787 8.083306 0.600986
0.740511 8.558714 0.695221
0.270169 1.253074 0.049048
3.951042 22.067648 -2.507876
2.566330 10.014479 -1.692189
2.056168 10.249830 -1.624890
2.914865 24.420956 -2.551986
1.705532 26.602554 -2.566970
2.072795 14.956696 -2.295783
1.363607 16.042744 -2.322084
13.060904 36.303303 -1.372187
8.621640 28.980556 -0.734120
10.660131 27.824343 -2.615323
10.685929 33.374607 -2.749238
2.403052 10.192792 -0.026337
1.771198 9.796984 0.076116
7.931937 30.680735 -2.220211
7.052582 35.362144 -2.210049
1.245212 10.500356 0.153811
0.587121 8.776320 0.248343
4.281805 30.433823 -1.570462
2.626045 30.942225 -1.373760
3.127906 8.684593 0.808771
2.597689 8.611352 0.893735
11.607008 30.272877 0.678891
2.890446 8.936862 0.418917
1.781932 7.581110 0.859345
1.361359 7.461477 0.912991
2.309830 8.964591 0.496624
1.917373 9.447644 0.600707
1.817413 5.014230 -2.019877
1.577661 5.194462 -2.030892
1.279189 9.493013 -1.761803
0.797315 9.638483 -1.690195
1.243308 5.392195 -2.021513
0.988692 5.642207 -2.033277
1.169394 4.601235 -1.990344
0.939981 4.747749 -1.987357
0.630553 5.863551 -2.039307
0.336724 6.044858 -2.026462
0.627998 4.903759 -1.982698
0.376968 5.079184 -1.976909
2.719005 7.564509 -2.196032
2.417612 8.016515 -2.213003
2.340589 6.050641 -2.089696
2.045324 6.275175 -2.098316
1.898676 8.159172 -2.156657
1.443933 8.168303 -2.050228
1.678574 6.569454 -2.105672
1.365644 6.894173 -2.117868
0.973386 8.623899 -2.061117
0.539013 8.962765 -2.043419
0.959025 7.233795 -2.133160
0.599538 7.547396 -2.140029
3.653807 10.172702 -1.810068
2.948832 9.864640 -1.621159
3.464958 9.050363 -2.115691
3.052464 9.460053 -2.095586
2.247761 9.642559 -1.483132
2.851110 15.869814 -2.336764
2.405471 9.395061 -1.968195
1.814122 9.095084 -1.791120
6.196892 17.052851 -2.423537
5.515598 18.293236 -2.443352
1.146594 8.131173 0.603517
0.787389 8.787101 0.708498
4.697673 19.664621 -2.446037
4.019294 22.049265 -2.507152
2.579321 9.935985 -1.678705
2.091082 10.256835 -1.627326
2.992797 24.421539 -2.553104
1.791473 26.632788 -2.570707
2.118937 14.944253 -2.294797
1.412982 16.026571 -2.320212
13.202247 36.337196 -1.375465
8.694269 28.892054 -0.732125
10.764774 27.835264 -2.619861
11.424414 35.303757 -2.923617
2.425200 10.144378 -0.025396
1.549695 8.400183 0.094780
8.044003 30.715450 -2.224957
7.170761 35.375015 -2.212461
1.282389 10.530130 0.153640
0.637717 9.117656 0.249990
4.375401 30.406384 -1.569651
2.726197 30.967646 -1.375493
3.291976 9.047562 0.834865
2.586690 8.477155 0.883608
10.934661 28.258125 0.647914
2.912966 8.910616 0.418508
1.882587 7.893146 0.886966
1.385866 7.463040 0.913552
2.335433 8.947625 0.496308
1.972539 9.566898 0.605973
1.833802 5.010229 -2.020637
1.592903 5.185932 -2.029388
1.327866 9.622959 -1.788805
0.816193 9.498867 -1.664046
1.261108 5.391879 -2.022987
1.001620 5.611485 -2.022510
1.186624 4.608093 -1.995331
0.955595 4.748355 -1.988991
0.648972 5.861540 -2.039307
0.356226 6.053158 -2.029868
0.642161 4.892681 -1.978696
0.392791 5.076136 -1.976131
2.744740 7.561335 -2.197719
2.442786 8.008879 -2.213003
2.357505 6.037985 -2.087726
2.066199 6.272316 -2.099613
1.926545 8.162540 -2.159319
1.471609 8.175144 -2.053312
1.694866 6.547640 -2.099960
1.391721 6.912244 -2.125274
1.001851 8.632341 -2.064086
0.567170 8.961028 -2.043419
0.981748 7.230746 -2.133160
0.624154 7.556921 -2.143517
3.658730 10.087236 -1.795809
2.987165 9.879873 -1.625559
3.487014 9.023101 -2.111588
3.093571 9.485683 -2.103966
2.480048 10.479945 -1.626035
2.902015 15.866613 -2.337677
2.425560 9.351546 -1.960082
1.835784 9.054787 -1.783743
6.251115 17.035154 -2.423825
5.574763 18.281504 -2.444180
1.202145 8.331086 0.613545
0.902500 9.759056 0.764582
4.764117 19.669033 -2.448649
4.091420 22.052151 -2.509082
2.586790 9.838505 -1.661577
2.120135 10.234779 -1.624542
3.072001 24.431734 -2.555341
1.875543 26.632984 -2.571330
2.167018 14.945329 -2.296112
1.463145 16.020086 -2.319900
13.326674 36.323677 -1.376694
8.719984 28.650352 -0.725142
10.863045 27.829121 -2.622697
11.458603 35.032768 -2.902725
2.458483 10.142534 -0.025530
1.578254 8.407072 0.094622
8.818936 33.239529 -2.427505
2.014445 9.686280 -0.452633
1.313187 10.508195 0.153731
0.664674 9.091667 0.249875
4.479667 30.451746 -1.573124
2.822207 30.945004 -1.374780
3.334942 9.076473 0.837618
2.612143 8.465173 0.883302
10.960670 28.063490 0.645403
2.945298 8.914723 0.418826
1.913069 7.910420 0.888987
1.428542 7.562417 0.923463
2.511723 9.494489 0.514418
1.971034 9.408013 0.599555
1.846934 4.997516 -2.017596
1.605397 5.168495 -2.024124
1.366751 9.678922 -1.800937
0.844677 9.480597 -1.661058
1.275414 5.377048 -2.018567
1.021846 5.623016 -2.028252
1.196875 4.588523 -1.987851
0.971575 4.750701 -1.991440
0.667382 5.859472 -2.039307
0.375673 6.059519 -2.032593
0.658543 4.897901 -1.981898
0.409151 5.080388 -1.978465
2.769813 7.556275 -2.198844
2.471864 8.014051 -2.216817
2.375062 6.027040 -2.086413
2.082350 6.255010 -2.095721
1.955359 8.169561 -2.163046
1.496941 8.168580 -2.052798
1.723235 6.571606 -2.110115
1.414926 6.915299 -2.127743
1.027082 8.613765 -2.060128
0.593470 8.930120 -2.036288
1.004997 7.231403 -2.134359
0.647420 7.549201 -2.141773
3.663148 10.001841 -1.781551
3.019330 9.874212 -1.626236
3.523893 9.033851 -2.117058
3.122749 9.474064 -2.103525
2.511097 10.464433 -1.624736
2.952561 15.861306 -2.338286
2.532168 9.634695 -2.025840
1.864609 9.050892 -1.784153
6.301148 17.006161 -2.422384
5.632746 18.265795 -2.444456
1.147064 7.788001 0.586966
0.915223 9.563323 0.753479
4.829685 19.669374 -2.450739
4.161406 22.043091 -2.509565
2.600314 9.765765 -1.649186
2.137448 10.156723 -1.611663
3.146685 24.406195 -2.553551
1.961214 26.654736 -2.574236
2.214541 14.942350 -2.296770
1.513280 16.013441 -2.319588
13.468535 36.356575 -1.379971
9.211631 29.931911 -0.767851
10.970163 27.844860 -2.627802
11.557362 34.962528 -2.899693
0.284868 1.254838 0.179419
1.605764 8.407969 0.094542
8.828356 32.859314 -2.399488
2.029386 9.605672 -0.447540
1.344895 10.494102 0.153781
0.702748 9.219184 0.250498
4.566948 30.382244 -1.569883
2.920148 30.943943 -1.375187
3.308202 8.918286 0.827259
2.764633 8.864665 0.916137
11.003205 27.913612 0.643593
2.980196 8.926310 0.419327
1.959542 7.991404 0.896565
1.433096 7.456142 0.913739
2.411977 9.008027 0.498769
1.986618 9.335282 0.596758
1.864589 4.996879 -2.019877
1.626000 5.177592 -2.030140
1.355752 9.393217 -1.744192
0.877082 9.507249 -1.666661
1.295402 5.385655 -2.023723
1.036525 5.603244 -2.021792
1.211283 4.584742 -1.987851
0.985770 4.744047 -1.989807
0.684882 5.849910 -2.036503
0.394136 6.048923 -2.029187
0.673407 4.892179 -1.980297
0.424964 5.077241 -1.977687
2.798912 7.561919 -2.203342
2.495893 8.002568 -2.215728
2.396099 6.024806 -2.088383
2.100796 6.244847 -2.094424
1.983775 8.174611 -2.166241
1.523639 8.169539 -2.054340
1.737945 6.544186 -2.102498
1.434741 6.901500 -2.124657
1.055343 8.620110 -2.062602
0.619322 8.895260 -2.028207
1.026883 7.222548 -2.132560
0.670806 7.543317 -2.140610
3.703481 10.014258 -1.786185
3.026077 9.785526 -1.612019
3.547226 9.010065 -2.113868
3.143320 9.436422 -2.096909
2.562332 10.531232 -1.637402
3.002373 15.851954 -2.338286
2.562930 9.628579 -2.026267
1.930221 9.225205 -1.822674
6.360116 17.001101 -2.424690
5.691868 18.253685 -2.445284
1.168185 7.762641 0.585895
0.792970 7.976317 0.662257
4.894829 19.667566 -2.452568
4.229154 22.022108 -2.508600
2.629434 9.751853 -1.648093
2.190503 10.250162 -1.629763
3.226237 24.417858 -2.556012
2.047355 26.680180 -2.577558
2.262075 14.939219 -2.297428
1.563963 16.012543 -2.320212
11.340554 30.331816 -1.118029
8.845919 28.421257 -0.719468
11.078237 27.862040 -2.633097
11.692359 35.001671 -2.906432
2.554374 10.254864 -0.028486
1.640431 8.446096 0.093962
8.949400 32.896816 -2.404694
2.056248 9.583630 -0.446468
1.373879 10.460091 0.153932
0.749877 9.454233 0.251637
4.658726 30.344065 -1.568494
3.005244 30.809362 -1.368767
3.401776 9.081480 0.839454
2.787716 8.840708 0.914910
11.072331 27.832466 0.642863
2.987941 8.856218 0.417870
1.974417 7.944624 0.893029
1.470026 7.522002 0.920471
2.585599 9.530572 0.516122
2.025107 9.371989 0.598568
1.880940 4.992724 -2.020637
1.640050 5.165382 -2.027133
1.330730 9.026216 -1.671011
0.911844 9.557271 -1.676747
1.308276 5.365319 -2.017094
1.058168 5.621993 -2.030406
1.228561 4.591441 -1.992838
0.999936 4.737350 -1.988174
0.704650 5.858881 -2.040710
0.413739 6.057039 -2.032593
0.689040 4.891852 -1.981097
0.441965 5.088735 -1.983134
2.815881 7.535131 -2.197719
2.522170 7.998362 -2.216817
2.419991 6.029502 -2.092979
2.122212 6.243596 -2.096370
2.010848 8.173949 -2.167838
1.550717 8.172313 -2.056396
1.761495 6.549672 -2.106307
1.456418 6.896958 -2.124657
1.082915 8.620595 -2.063591
0.649974 8.932029 -2.037714
1.048726 7.213624 -2.130760
0.694502 7.541172 -2.140610
3.701668 9.914159 -1.769075
3.060307 9.787265 -1.614050
3.581309 9.013338 -2.117514
3.179745 9.446854 -2.101761
2.559143 10.377596 -1.612719
3.051422 15.838561 -2.337677
2.557742 9.490400 -1.996804
1.970843 9.274656 -1.834558
6.413492 16.981037 -2.424690
5.753334 18.248945 -2.447216
1.197835 7.792481 0.587550
0.817234 7.965837 0.661799
4.958538 19.659781 -2.453613
4.304744 22.041845 -2.512702
2.661101 9.747337 -1.648822
2.088098 9.615445 -1.516291
3.302122 24.401697 -2.555341
2.134601 26.717243 -2.582126
2.307469 14.922294 -2.295783
1.612892 15.993789 -2.318028
11.412442 30.234358 -1.115325
9.078176 28.849186 -0.734370
11.197659 27.906532 -2.641227
11.722750 34.728687 -2.885372
2.602883 10.310724 -0.029964
1.673441 8.474274 0.093513
9.106325 33.062675 -2.420156
2.085924 9.575173 -0.446334
1.405102 10.443834 0.153992
0.810088 9.834612 0.253476
4.756824 30.347033 -1.569536
3.103800 30.817656 -1.369684
3.445929 9.111773 0.842339
2.700812 8.468701 0.885603
11.028299 27.471039 0.637724
3.024705 8.873308 0.418508
1.998872 7.936451 0.892860
1.499751 7.548617 0.923463
2.309238 8.418684 0.479965
2.008866 9.154654 0.589682
1.894617 4.981613 -2.018356
1.656268 5.160204 -2.027133
1.336454 8.874657 -1.641269
0.939613 9.530890 -1.672264
1.329216 5.377409 -2.023723
1.073082 5.603961 -2.024663
1.240067 4.577040 -1.987851
1.016678 4.743120 -1.992257
0.723051 5.856638 -2.040710
0.432891 6.057585 -2.033274
0.703591 4.884226 -1.978696
0.457949 5.087321 -1.983134
2.836804 7.519073 -2.195470
2.547283 7.990399 -2.216817
2.433907 6.009633 -2.088383
2.139386 6.229732 -2.093776
2.036988 8.169462 -2.168370
1.577463 8.173098 -2.057939
1.780040 6.536793 -2.103768
1.478469 6.894210 -2.125274
1.103658 8.569120 -2.051221
0.659641 8.678065 -1.975915
1.072531 7.217838 -2.133160
0.718364 7.540859 -2.141191
3.841089 10.187647 -1.824326
3.081608 9.747508 -1.608634
3.608147 8.998432 -2.116603
3.210029 9.438667 -2.102202
3.658584 14.594271 -2.329829
3.099277 15.819193 -2.336155
2.567287 9.408858 -1.980151
2.012606 9.327774 -1.847262
6.468219 16.964502 -2.425267
5.809434 18.227005 -2.446664
1.213455 7.733452 0.584824
0.841847 7.959260 0.661570
5.016325 19.628742 -2.451523
4.373580 22.026266 -2.512460
2.720789 9.843105 -1.668866
2.112848 9.583821 -1.511766
3.384257 24.430571 -2.559814
2.222263 26.756002 -2.586901
2.354024 14.913024 -2.295455
1.663932 15.996505 -2.319276
11.503087 30.187160 -1.114833
8.897992 27.966879 -0.706438
11.294257 27.893358 -2.643497
11.894060 34.874695 -2.901715
2.631258 10.287010 -0.029606
1.928014 9.622565 0.077990
9.227865 33.097279 -2.425209
2.117270 9.574423 -0.446736
1.331790 9.682785 0.157830
0.841144 9.834013 0.253485
4.856572 30.359539 -1.571156
3.199572 30.797821 -1.369175
0.463349 1.276394 0.291486
2.795308 8.672943 0.902788
11.176998 27.590038 0.640147
0.485422 1.341828 0.237483
2.036267 7.978368 0.897071
1.521907 7.536057 0.922715
2.335133 8.409464 0.479902
2.235396 10.048036 0.627612
1.910928 4.977361 -2.019117
1.674161 5.160273 -2.029388
1.370098 8.907229 -1.648705
0.965870 9.490742 -1.665167
1.343800 5.364200 -2.020040
1.095211 5.624403 -2.033994
1.260820 4.595893 -1.998655
1.028544 4.725616 -1.985724
0.739741 5.841339 -2.035802
0.452577 6.065574 -2.036680
0.720037 4.889239 -1.981898
0.472150 5.065670 -1.974575
2.863856 7.519083 -2.198282
2.573540 7.986024 -2.217907
2.448444 5.991482 -2.084444
2.161397 6.230140 -2.096370
2.065510 8.174228 -2.171565
1.604962 8.177591 -2.060509
1.805677 6.549434 -2.110115
1.498528 6.882091 -2.122806
1.127718 8.544487 -2.045779
0.691768 8.739873 -1.991603
1.096665 7.223860 -2.136159
0.742411 7.542376 -2.142354
3.873778 10.177367 -1.824683
3.135430 9.811065 -1.621836
3.636396 8.987054 -2.116603
3.237147 9.421151 -2.100438
2.608149 10.298222 -1.602001
3.153170 15.830712 -2.339503
2.583175 9.351816 -1.969049
2.067133 9.438121 -1.872259
6.523620 16.949636 -2.426132
5.870293 18.219980 -2.448320
1.238387 7.733543 0.585019
0.885309 8.131313 0.671643
5.081957 19.628241 -2.453613
4.445876 22.027990 -2.514391
2.712130 9.694469 -1.641898
2.139544 9.561750 -1.508981
3.460143 24.413914 -2.559143
2.307316 26.760780 -2.588146
2.402446 14.915291 -2.297099
1.714590 15.995129 -2.319900
11.633806 30.244102 -1.118930
8.954674 27.841703 -0.703258
11.402200 27.907486 -2.648602
11.971809 34.744808 -2.893459
2.607867 10.065915 -0.024679
1.927119 9.461569 0.080076
9.349169 33.129532 -2.430108
2.150360 9.581362 -0.447674
1.355101 9.629059 0.158082
0.857287 9.659958 0.252662
4.959353 30.389448 -1.573818
3.304110 30.861107 -1.372945
10.944708 28.247044 2.192656
2.834785 8.702075 0.905857
11.482760 28.089567 0.648585
9.744677 28.182167 0.884161
2.072430 8.014344 0.900776
1.543211 7.519526 0.921593
2.367552 8.423236 0.480596
1.906205 8.424122 0.559404
1.928585 4.976498 -2.021398
1.688656 5.149697 -2.027133
1.374213 8.753755 -1.618571
0.990287 9.434885 -1.655080
1.365304 5.377952 -2.027407
1.106498 5.587944 -2.021074
1.265324 4.556908 -1.982033
1.047611 4.741994 -1.994707
0.759085 5.846411 -2.038606
0.472181 6.071624 -2.039405
0.736239 4.892385 -1.984298
0.490069 5.086179 -1.983912
2.883989 7.501101 -2.195470
2.602747 7.990721 -2.221721
2.473071 5.997709 -2.089696
2.179721 6.219743 -2.095073
2.094566 8.180761 -2.175292
1.632504 8.181992 -2.063079
1.821591 6.527306 -2.104403
1.522966 6.890363 -2.127126
1.152431 8.525546 -2.041820
0.724443 8.803501 -2.007766
1.116960 7.205305 -2.131360
0.767035 7.549528 -2.145261
3.914253 10.187173 -1.828960
3.190283 9.876255 -1.635376
3.666832 8.980988 -2.117970
3.268631 9.416468 -2.101761
2.649895 10.326273 -1.608172
3.198994 15.801348 -2.336460
2.630599 9.407585 -1.983567
2.124051 9.555863 -1.898896
6.551668 16.943060 -2.426708
5.901335 18.218279 -2.449424
1.252811 7.745386 0.585701
0.889349 8.048515 0.666950
5.112782 19.620232 -2.453613
4.476141 21.999577 -2.511737
2.730579 9.701548 -1.644084
2.156272 9.566070 -1.510374
3.500758 24.424187 -2.560933
2.351755 26.784870 -2.591053
2.425229 14.907604 -2.296441
1.739290 15.988486 -2.319276
14.087972 36.438324 -1.392097
8.997167 27.823801 -0.703133
11.467230 27.941097 -2.653896
11.072881 31.966467 -2.646632
2.623674 10.061808 -0.024679
1.900300 9.252727 0.082847
9.455799 33.306595 -2.445418
2.165841 9.579919 -0.447808
1.382856 9.714007 0.157640
0.890965 9.869787 0.253677
5.040367 30.582542 -1.585624
3.363926 30.961132 -1.378346
10.977455 28.200075 2.190558
2.858293 8.727962 0.908312
11.449224 27.882875 0.645607
9.731968 28.002462 0.880199
2.078411 7.986029 0.898586
1.559384 7.538558 0.923650
2.379130 8.413742 0.480407
1.868601 8.194956 0.549860
1.932323 4.963140 -2.016835
1.698458 5.152327 -2.029388
1.410177 8.889057 -1.646357
1.010784 9.488040 -1.665540
1.370000 5.361407 -2.021513
1.119916 5.610018 -2.030406
1.278968 4.577656 -1.992838
1.055445 4.742127 -1.995523
0.768014 5.843356 -2.037905
0.480872 6.059625 -2.035317
0.743923 4.891223 -1.984298
0.497376 5.078064 -1.980800
2.899951 7.507293 -2.198844
2.613515 7.981132 -2.220086
2.481758 5.992075 -2.089039
2.188244 6.212738 -2.093776
2.106925 8.175596 -2.174760
1.647230 8.188898 -2.065650
1.834439 6.533556 -2.107576
1.531753 6.878670 -2.124040
1.170384 8.556350 -2.050232
0.737956 8.798480 -2.006815
1.130088 7.214845 -2.134959
0.779462 7.554028 -2.147005
3.854660 9.986584 -1.791175
3.245062 9.993192 -1.657378
3.687629 8.991416 -2.122072
3.282780 9.409480 -2.101320
2.674083 10.352652 -1.613368
3.225770 15.805992 -2.337981
2.711605 9.636496 -2.036515
2.137366 9.544869 -1.897257
6.611377 16.938971 -2.429303
5.958554 18.199644 -2.449424
1.279466 7.755199 0.586382
0.916171 8.059573 0.667751
5.175426 19.607903 -2.454136
4.550445 22.010683 -2.514874
2.746917 9.643782 -1.634609
2.191096 9.580378 -1.514203
3.576039 24.403236 -2.559814
2.442865 26.854612 -2.599150
2.471410 14.896018 -2.295783
1.790606 15.992761 -2.320836
14.211136 36.416206 -1.393081
9.113664 27.884722 -0.706063
11.572532 27.947222 -2.658245
11.242891 32.130959 -2.664491
2.682596 10.155906 -0.027053
1.833432 8.780519 0.089131
9.575320 33.328457 -2.449551
2.200785 9.594473 -0.449282
1.406041 9.660155 0.157891
0.929028 9.944618 0.254050
5.128795 30.521267 -1.582962
3.450625 30.855116 -1.373455
11.006771 28.015032 2.179937
2.901856 8.768203 0.912302
11.513776 27.791353 0.644731
9.838412 28.024584 0.881474
2.106580 7.991011 0.899597
1.634636 7.783226 0.947587
2.445011 8.542561 0.484887
2.168503 9.391132 0.600625
1.949963 4.962198 -2.019117
1.713485 5.143443 -2.027884
1.464578 9.045206 -1.678838
1.044773 9.523890 -1.673011
1.389212 5.366064 -2.025197
1.133547 5.586329 -2.022510
1.290823 4.564875 -1.988682
1.069948 4.737004 -1.994707
0.786631 5.842769 -2.038606
0.499912 6.058083 -2.035317
0.758126 4.881622 -1.981097
0.512979 5.072809 -1.979244
2.928449 7.510644 -2.202780
2.640379 7.978365 -2.221721
2.496898 5.975546 -2.085757
2.209637 6.211186 -2.095721
2.135070 8.178254 -2.177422
1.674098 8.189365 -2.067192
1.852334 6.518648 -2.104403
1.555011 6.881250 -2.126508
1.201930 8.585242 -2.058643
0.765926 8.799989 -2.007766
1.153370 7.215024 -2.136159
0.804567 7.564866 -2.151074
3.953596 10.146627 -1.824683
3.258757 9.928587 -1.647562
3.710619 8.967202 -2.118882
3.307183 9.384385 -2.097791
3.819844 14.556973 -2.330479
3.275422 15.795777 -2.337981
2.715952 9.537793 -2.016019
2.172494 9.561027 -1.902175
6.665284 16.919960 -2.429591
6.019416 18.192125 -2.451080
1.327473 7.888962 0.593197
0.931567 7.969360 0.662715
5.239056 19.599207 -2.455181
2.041029 9.647451 -0.981614
2.801378 9.718184 -1.650644
2.228662 9.606083 -1.520120
3.656535 24.417431 -2.562722
2.528321 26.858690 -2.600395
2.519854 14.897905 -2.297428
1.840391 15.983130 -2.320212
11.067756 28.116394 -1.029212
9.152442 27.707855 -0.701200
11.667190 27.927261 -2.659947
11.356364 32.131195 -2.667692
0.310431 1.248759 0.179419
1.829495 8.623989 0.091163
9.739686 33.503056 -2.465932
2.233150 9.597237 -0.449952
1.442072 9.693261 0.157700
0.952031 9.854037 0.253629
5.236166 30.571909 -1.586897
3.526239 30.657581 -1.363876
11.113154 28.026686 2.183215
2.891130 8.643576 0.902942
11.539970 27.609341 0.642425
9.881738 27.867239 0.878423
2.206570 8.261385 0.923849
1.645172 7.711796 0.941229
2.432514 8.400545 0.480470
1.941230 8.274556 0.553727
1.965542 4.956048 -2.019117
1.731966 5.145071 -2.030892
1.482908 8.980599 -1.666706
1.064577 9.428769 -1.655454
1.403182 5.350896 -2.020777
1.154777 5.601041 -2.029688
1.305667 4.562544 -1.989513
1.084426 4.731838 -1.993890
0.805509 5.843977 -2.040009
0.518025 6.045238 -2.031230
0.774940 4.888261 -1.985099
0.530003 5.082172 -1.983912
2.949903 7.496058 -2.201093
2.666639 7.973686 -2.222811
2.519362 5.976363 -2.089039
2.227873 6.200648 -2.094424
2.165237 8.188268 -2.182214
1.700202 8.185960 -2.067706
1.874396 6.518260 -2.106307
1.577875 6.881899 -2.128360
1.234223 8.617854 -2.068044
0.785293 8.702708 -1.984472
1.176029 7.211365 -2.136159
0.828933 7.568009 -2.152818
4.131099 10.501930 -1.896332
3.357682 10.124270 -1.684797
3.740280 8.959091 -2.119793
3.336647 9.373949 -2.097791
3.870146 14.562062 -2.333402
3.326239 15.791213 -2.338894
2.761732 9.583620 -2.028402
2.205126 9.565607 -1.904634
6.726475 16.919153 -2.432762
6.078412 18.178764 -2.451908
1.614770 9.386166 0.667482
0.937604 7.803768 0.653329
5.303721 19.594131 -2.456748
2.048258 9.532229 -0.968100
2.830782 9.705564 -1.649915
2.359194 10.030650 -1.598436
3.735038 24.417604 -2.564064
2.617451 26.900118 -2.605586
2.567657 14.895745 -2.298414
1.890821 15.979232 -2.320524
14.489927 36.452442 -1.398652
9.265320 27.756733 -0.703757
11.756413 27.894136 -2.660325
11.477301 32.151676 -2.672747
2.502623 9.247815 -0.006361
2.041008 9.486754 0.079442
10.002270 34.005928 -2.508646
2.280963 9.665965 -0.455180
1.521131 10.002941 0.156102
0.863295 8.618811 0.247702
5.333213 30.561209 -1.587244
3.623926 30.658257 -1.364487
11.195198 27.976812 2.182166
2.840399 8.401864 0.884069
11.605624 27.523216 0.641636
9.976630 27.856771 0.878924
2.354579 8.700359 0.962923
1.644066 7.587792 0.929821
2.469111 8.427361 0.481606
1.971324 8.285927 0.554467
1.981797 4.951563 -2.019877
1.746355 5.134332 -2.028636
1.527338 9.070622 -1.685882
1.068971 9.202814 -1.612868
1.424842 5.364410 -2.028143
1.170120 5.586412 -2.025381
1.323602 4.570632 -1.995331
1.100093 4.731968 -1.995523
0.824133 5.843272 -2.040710
0.537805 6.052949 -2.034636
0.789688 4.882186 -1.983498
0.544090 5.062154 -1.976131
2.974150 7.488534 -2.201655
2.689843 7.959795 -2.221176
2.536630 5.964947 -2.087726
2.245426 6.188276 -2.092478
2.191958 8.185145 -2.183279
1.727089 8.186255 -2.069248
1.890568 6.497787 -2.101229
1.597789 6.869491 -2.125891
1.258424 8.594769 -2.063096
0.808431 8.653763 -1.973063
1.198997 7.209516 -2.136759
0.851664 7.555857 -2.149911
4.191823 10.558343 -1.909877
3.370816 10.057558 -1.674642
3.771448 8.954468 -2.121617
3.366078 9.363421 -2.097791
2.794249 10.410796 -1.627658
2.040827 9.490543 -1.348995
2.833211 9.715472 -2.060427
2.243978 9.596779 -1.912830
6.776634 16.890598 -2.431609
6.138015 18.167089 -2.453012
1.338134 7.662164 0.582390
0.963779 7.814662 0.654131
5.365249 19.577374 -2.456748
2.095749 9.607265 -0.978235
2.857889 9.685314 -1.647729
2.392501 10.030857 -1.599828
3.815121 24.427349 -2.566525
2.699776 26.869986 -2.603302
2.615472 14.893435 -2.299401
1.941714 15.979097 -2.321460
14.630451 36.471645 -1.401520
9.342274 27.697176 -0.702759
11.861935 27.899197 -2.664674
10.270459 28.479282 -2.346059
2.559409 9.340111 -0.008690
2.099041 9.611275 0.077673
10.509269 35.315800 -2.616122
2.353575 9.837408 -0.467510
1.565337 10.079108 0.155690
0.882981 8.542427 0.247347
5.430596 30.552168 -1.587707
3.724282 30.680431 -1.366220
11.288271 27.954456 2.183084
2.871251 8.406123 0.885143
11.694382 27.492142 0.641724
10.007781 27.669182 0.875144
2.285040 8.343385 0.932270
1.670000 7.592321 0.930756
2.731384 9.206586 0.507540
2.484550 10.326730 0.641106
1.995239 4.940178 -2.017596
1.760100 5.121799 -2.025628
1.547395 9.017478 -1.676099
1.128341 9.460926 -1.662925
1.441195 5.358114 -2.027407
1.192985 5.608296 -2.035430
1.331702 4.545537 -1.985357
1.114543 4.726710 -1.994707
0.842761 5.842507 -2.041411
0.557474 6.058722 -2.037361
0.805021 4.879682 -1.983498
0.562309 5.082407 -1.985468
2.994061 7.470258 -2.198844
2.716683 7.956774 -2.222811
2.558363 5.963882 -2.090352
2.267430 6.188307 -2.095073
2.221742 8.193092 -2.187538
1.755590 8.194028 -2.072846
1.914226 6.502718 -2.105037
1.621511 6.873703 -2.128978
1.288635 8.611846 -2.068539
0.840136 8.699536 -1.984947
1.220662 7.200074 -2.134959
0.876251 7.560750 -2.152236
3.872378 9.670887 -1.739132
3.406160 10.058130 -1.676673
3.803391 8.951527 -2.123896
3.399441 9.363812 -2.100438
2.768460 10.188818 -1.591283
2.096867 9.605823 -1.368167
2.777273 9.416272 -1.994242
2.332628 9.839359 -1.966513
6.834141 16.880224 -2.433339
6.196338 18.151466 -2.453563
1.360419 7.648094 0.581904
1.004925 7.946355 0.661914
5.430992 19.575701 -2.458839
2.125500 9.598693 -0.977994
2.903623 9.727126 -1.657568
2.425838 10.030952 -1.601221
3.889331 24.399544 -2.564735
2.784591 26.865332 -2.603717
2.662954 14.889025 -2.300059
1.990702 15.963116 -2.319900
14.761492 36.466236 -1.403322
9.417671 27.633614 -0.701637
11.980987 27.934956 -2.672237
11.617858 31.910343 -2.657583
2.581727 9.306995 -0.008108
2.111694 9.524537 0.078756
10.080932 33.495686 -2.472822
0.349170 1.344299 0.118607
1.617359 10.200508 0.155047
0.908169 8.523696 0.247271
5.724831 31.625212 -1.651944
3.817960 30.646774 -1.365099
11.472640 28.155333 2.199868
2.900228 8.404608 0.885757
11.800454 27.501192 0.642454
10.321860 28.261339 0.890263
2.304245 8.311219 0.930081
1.689572 7.567588 0.928886
2.615935 8.721601 0.491828
2.143826 8.772609 0.575613
2.012163 4.937303 -2.019117
1.776783 5.117997 -2.026380
1.580869 9.041537 -1.681969
1.168334 9.543174 -1.679362
1.453052 5.335642 -2.020040
1.204812 5.577123 -2.024663
1.348083 4.548295 -1.988682
1.128143 4.717852 -1.992257
0.860832 5.837979 -2.040710
0.576337 6.055068 -2.036680
0.820348 4.877129 -1.983498
0.576682 5.065962 -1.979244
3.024771 7.478584 -2.204467
2.743535 7.953664 -2.224445
2.575574 5.952353 -2.089039
2.286212 6.179376 -2.094424
2.248505 8.189787 -2.188603
1.784971 8.205481 -2.077473
1.930261 6.482147 -2.099960
1.643099 6.868576 -2.128978
1.313298 8.592437 -2.064581
0.872703 8.750997 -1.998258
1.245267 7.207477 -2.138559
0.900221 7.559861 -2.152818
4.031823 9.975842 -1.801156
3.453583 10.094042 -1.685135
3.835356 8.948472 -2.126175
3.431511 9.360420 -2.102202
4.017250 14.561069 -2.339573
2.126192 9.595325 -1.367558
2.739777 9.184870 -1.943429
2.379373 9.898640 -1.980856
6.896147 16.880646 -2.436798
6.257188 18.143154 -2.455219
1.385888 7.651640 0.582293
1.031634 7.957026 0.662715
5.494614 19.566177 -2.459884
2.158223 9.603600 -0.979442
2.956521 9.791320 -1.671781
2.461514 10.040508 -1.604353
3.966602 24.391129 -2.565183
2.869600 26.862385 -2.604340
2.712567 14.896109 -2.302690
2.045788 15.995981 -2.326140
14.896406 36.469616 -1.405535
9.507030 27.611460 -0.701886
12.090069 27.946503 -2.677342
11.781179 32.045826 -2.673084
7.946821 28.107718 -0.446044
2.134663 9.486622 0.079178
10.150013 33.345604 -2.463330
8.118821 33.276527 -2.088750
1.627013 10.059206 0.155740
1.162106 10.650697 0.257526
5.853223 31.764137 -1.661203
3.916226 30.650484 -1.365914
11.605899 28.228016 2.207604
2.976734 8.540592 0.897571
11.876441 27.440134 0.642074
10.325692 27.997957 0.884662
2.381502 8.484151 0.945912
1.713770 7.564187 0.929073
2.623990 8.650270 0.489746
2.223137 8.977407 0.584581
2.029087 4.934373 -2.020637
1.796481 5.122901 -2.030892
1.609613 9.038456 -1.682360
1.205975 9.601860 -1.691316
1.474330 5.347163 -2.026670
1.224675 5.584262 -2.028970
1.366620 4.557954 -1.995331
1.145061 4.723167 -1.996340
0.878305 5.829692 -2.038606
0.597468 6.075694 -2.044854
0.836303 4.878137 -1.985099
0.593823 5.075112 -1.983912
3.048980 7.470820 -2.205029
2.767879 7.943187 -2.223900
2.588922 5.932134 -2.084444
2.306268 6.173939 -2.095073
2.276309 8.190107 -2.190733
1.810739 8.199834 -2.077473
1.956155 6.494191 -2.106307
1.662460 6.854127 -2.125891
1.327493 8.507891 -2.043800
0.898837 8.734681 -1.994930
1.267228 7.199773 -2.137359
0.923739 7.555095 -2.152236
4.007822 9.828412 -1.774778
3.508934 10.152131 -1.697660
3.861893 8.932809 -2.125263
3.458881 9.344100 -2.100879
2.903993 10.425797 -1.634804
2.157610 9.594387 -1.368471
2.782284 9.221075 -1.953677
2.385691 9.788350 -1.958727
6.949907 16.860723 -2.437086
6.315460 18.127150 -2.455771
1.448643 7.853395 0.592516
1.058168 7.965626 0.663402
5.557151 19.552629 -2.460406
2.193622 9.620012 -0.982337
2.969896 9.725604 -1.660848
2.516555 10.128353 -1.621757
4.043871 24.382465 -2.565630
2.955494 26.867079 -2.605793
2.758630 14.883636 -2.302032
2.092992 15.965965 -2.322396
15.042186 36.498363 -1.408894
9.585875 27.558788 -0.701138
12.189781 27.935740 -2.680178
10.867172 29.268919 -2.426088
9.963432 34.799538 -0.602577
2.138942 9.366719 0.080709
10.242970 33.275440 -2.460268
7.648293 30.918098 -1.927377
1.641421 9.951475 0.156263
1.138137 10.124143 0.255008
6.001039 32.000671 -1.676249
4.044205 30.881655 -1.378448
13.130491 31.644695 2.453331
3.242630 9.216549 0.953423
11.979432 27.441160 0.642687
10.414303 27.967251 0.884707
2.418602 8.513020 0.949112
1.804344 7.853966 0.957498
2.663583 8.682079 0.491071
2.184475 8.700780 0.573144
2.043863 4.926269 -2.019877
1.811957 5.115481 -2.030140
1.646888 9.081575 -1.692144
1.239577 9.625315 -1.696546
1.486040 5.324618 -2.019304
1.242612 5.582211 -2.029688
1.373947 4.531045 -1.984526
1.159895 4.719546 -1.996340
0.895445 5.819504 -2.035802
0.614007 6.047585 -2.035317
0.851301 4.873682 -1.984298
0.609555 5.071391 -1.983134
3.065072 7.443480 -2.199406
2.791555 7.930816 -2.222811
2.609852 5.929148 -2.086413
2.324333 6.163116 -2.093776
2.306252 8.197747 -2.194992
1.837327 8.197879 -2.078501
1.976549 6.488014 -2.106307
1.684882 6.852569 -2.127126
1.357633 8.524719 -2.049242
0.911136 8.584948 -1.958801
1.291216 7.203264 -2.139758
0.946545 7.544558 -2.149911
4.009304 9.744864 -1.760876
3.567269 10.217422 -1.711539
3.897771 8.938460 -2.129822
3.490257 9.338675 -2.102202
2.918913 10.353983 -1.624086
2.194699 9.618415 -1.373340
2.895240 9.484908 -2.016019
2.412716 9.765593 -1.955449
7.017328 16.873508 -2.442564
6.372373 18.107220 -2.455771
1.469932 7.831147 0.591640
1.087916 7.997892 0.665462
5.619097 19.536983 -2.460668
2.229140 9.636301 -0.985233
2.991657 9.688065 -1.655382
2.561216 10.171996 -1.631155
4.119112 24.361807 -2.564735
3.044093 26.895220 -2.609738
2.805740 14.876834 -2.302361
2.144176 15.967145 -2.323644
15.228234 36.622486 -1.416514
9.675044 27.536085 -0.701387
12.299978 27.948318 -2.685473
11.314334 30.184771 -2.511846
2.926461 10.167427 -0.028755
2.180846 9.414537 0.079970
10.358739 33.279270 -2.463177
7.722163 30.800993 -1.920943
1.659877 9.871357 0.156645
1.166117 10.086733 0.254845
6.769606 35.468273 -1.882037
4.155712 30.977692 -1.384053
13.297003 31.763401 2.464739
3.114503 8.760577 0.917058
12.065576 27.403393 0.642687
10.535102 28.022392 0.886848
2.547133 8.855584 0.979933
1.841933 7.904541 0.962921
2.925169 9.421424 0.515806
2.212284 8.695812 0.573227
2.059328 4.919824 -2.019877
1.828018 5.109764 -2.030140
1.681915 9.111056 -1.699188
1.276105 9.670089 -1.705885
1.507899 5.337794 -2.026670
1.261754 5.585571 -2.032559
1.393060 4.542332 -1.992006
1.173852 4.712332 -1.994707
0.916112 5.831455 -2.041411
0.633753 6.053110 -2.038042
0.867268 4.874589 -1.985899
0.626564 5.078600 -1.987025
3.095861 7.451516 -2.205029
2.814538 7.916563 -2.221176
2.628464 5.920920 -2.086413
2.343682 6.155784 -2.093776
2.334127 8.197873 -2.197122
1.864761 8.199610 -2.080557
1.997486 6.483582 -2.106941
1.704587 6.839852 -2.124657
1.389471 8.551002 -2.057159
0.935021 8.553066 -1.951671
1.313488 7.197297 -2.139158
0.970716 7.545344 -2.151074
4.118831 9.921059 -1.797948
3.603906 10.219189 -1.713908
3.939240 8.956440 -2.137571
3.522996 9.336799 -2.104408
2.977087 10.433893 -1.639351
2.234598 9.653867 -1.380034
2.880269 9.332127 -1.983140
2.497498 9.976483 -2.002575
7.069539 16.849554 -2.442275
6.428570 18.085241 -2.455495
1.554742 8.136318 0.607022
1.117611 8.028069 0.667408
5.684347 19.532553 -2.462497
5.122316 21.976410 -2.525732
2.999626 9.607344 -1.641533
2.585930 10.135254 -1.625934
4.194615 24.342867 -2.564064
3.130860 26.905285 -2.611814
2.852467 14.867944 -2.302361
2.192737 15.948584 -2.321772
15.401292 36.712627 -1.422659
9.791521 27.590353 -0.704193
12.407151 27.953194 -2.690011
11.431637 30.208735 -2.517237
8.531626 29.121199 -0.471483
2.394001 10.198542 0.069252
10.486047 33.318817 -2.468994
7.810081 30.741755 -1.918531
1.685739 9.836538 0.156795
1.189492 10.011501 0.254500
6.823343 35.150902 -1.864560
4.282196 31.178217 -1.395058
13.503292 31.973251 2.482702
3.135326 8.731961 0.915524
12.170318 27.407368 0.643359
10.601856 27.933052 0.885482
2.464734 8.472800 0.946923
1.843718 7.799809 0.953384
2.779665 8.859548 0.497507
2.247485 8.719802 0.574543
2.074776 4.913329 -2.019877
1.844684 5.105742 -2.030892
1.712370 9.115360 -1.701145
1.310866 9.699144 -1.712235
1.525181 5.334815 -2.027407
1.275209 5.563365 -2.025381
1.404583 4.529261 -1.987851
1.189089 4.710392 -1.995523
0.934430 5.828548 -2.041411
0.651800 6.041737 -2.034636
0.882579 4.871840 -1.985899
0.640963 5.063803 -1.981578
3.116266 7.434680 -2.202780
2.845844 7.925811 -2.226624
2.649391 5.917797 -2.088383
2.363011 6.148390 -2.093776
2.359872 8.190499 -2.197122
1.892229 8.201249 -2.082613
2.015563 6.470040 -2.104403
1.727445 6.840001 -2.126508
1.410524 8.512198 -2.048253
0.962312 8.553948 -1.952621
1.336805 7.196883 -2.140358
0.994905 7.546053 -2.152236
4.026103 9.614307 -1.740201
3.599863 10.105600 -1.695290
3.959417 8.926239 -2.133012
3.552313 9.325685 -2.104408
2.936441 10.172493 -1.596155
3.677590 15.735435 -2.342242
2.925426 9.373348 -1.994669
2.436857 9.602143 -1.923484
7.128628 16.841835 -2.444582
6.490687 18.079880 -2.457703
1.588426 8.172549 0.609067
