ply
format ascii 1.0
element vertex 1691
property float x
property float y
property float z
end_header
6.847558 0.104178 -1.847429
7.051010 0.467698 -1.843049
5.782689 -0.051489 -1.844809
5.835754 0.257640 -1.838230
7.112185 0.941386 -1.824417
7.358192 1.372503 -1.834838
5.917554 0.654081 -1.828944
6.068972 1.002024 -1.833346
7.564703 1.912691 -1.837471
7.753637 2.392851 -1.831874
6.169045 1.434342 -1.830225
6.268680 1.801842 -1.821460
11.081316 0.164300 -1.859616
11.618048 0.809116 -1.853032
8.551641 -0.047614 -1.849031
8.793215 0.415811 -1.838441
12.016637 1.573629 -1.848183
12.755891 2.341751 -1.851096
9.049871 0.992524 -1.838387
9.371669 1.540297 -1.837837
14.170876 0.163798 -1.844955
14.779425 0.983936 -1.845017
1.408239 0.336298 0.273862
1.388181 0.362112 0.285007
15.555694 1.963983 -1.848000
16.746275 3.030670 -1.851523
11.103870 1.176060 -1.845615
11.489230 1.840528 -1.833733
17.889856 4.342487 -1.855889
19.206703 5.778121 -1.878111
12.123332 2.701252 -1.849145
12.616462 3.510813 -1.847552
51.089668 0.564690 -1.885175
78.215538 5.322161 -2.236221
22.494453 -0.202870 -1.921955
24.747570 1.149013 -1.881047
1.273676 0.183080 0.179419
1.370665 0.223450 0.189211
27.239002 2.835071 -1.889826
31.364395 5.049270 -1.921882
1.228709 0.322322 0.200556
1.367079 0.384864 0.213030
36.450031 8.022694 -1.952408
1.418743 0.369842 0.135727
1.357391 0.036929 0.291486
1.405640 0.067533 0.309900
37.493454 -0.362320 0.752961
1.426361 0.040386 0.237483
1.353166 0.192620 0.316699
1.427027 0.232561 0.336462
1.373503 0.166145 0.248070
1.429057 0.202881 0.263205
4.931822 0.045591 -1.854860
4.978335 0.305462 -1.851914
9.752030 2.206494 -1.845550
10.147821 2.855076 -1.855682
4.998135 0.655554 -1.826302
5.093233 0.940605 -1.822240
4.392463 0.476686 -1.839909
4.436938 0.719225 -1.833020
5.149703 1.314541 -1.821264
5.215419 1.615930 -1.811212
4.448160 1.039782 -1.818630
4.537934 1.315180 -1.821283
6.849770 0.082682 -1.847991
7.065885 0.446444 -1.846863
5.793832 -0.069842 -1.848748
5.836535 0.239306 -1.838230
7.107455 0.918079 -1.822287
7.370068 1.350802 -1.836895
5.915806 0.635099 -1.827674
6.077719 0.983889 -1.835197
7.572556 1.889380 -1.837965
7.753690 2.366190 -1.829973
6.164214 1.412862 -1.827226
6.276148 1.782671 -1.822042
11.085711 0.129525 -1.860329
11.628397 0.773156 -1.854386
8.555344 -0.074523 -1.849943
8.796427 0.388278 -1.838883
12.035228 1.537593 -1.850457
12.767073 2.302377 -1.851704
9.058775 0.964694 -1.839668
9.368733 1.509582 -1.836197
14.161221 0.141458 -1.843514
14.784904 0.960984 -1.845569
1.408765 0.334086 0.273862
1.388748 0.359931 0.285007
15.552855 1.938821 -1.847216
16.768599 3.007544 -1.853694
11.101789 1.158218 -1.844886
11.495996 1.823105 -1.834429
17.898590 4.314846 -1.856113
19.210041 5.746228 -1.877489
12.119851 2.680519 -1.847829
12.629574 3.493114 -1.848799
50.822731 0.482039 -1.874196
78.014366 5.185311 -2.229674
22.533924 -0.238669 -1.925736
24.755316 1.110414 -1.881552
1.273962 0.181079 0.179419
1.371014 0.221297 0.189211
27.251358 2.793088 -1.890439
31.346668 4.995895 -1.920139
1.229213 0.320391 0.200556
1.367681 0.382716 0.213030
36.409912 7.953963 -1.949283
1.419322 0.367613 0.135727
1.357447 0.034797 0.291486
1.405744 0.065325 0.309900
37.400860 -0.420114 0.751618
1.426423 0.038145 0.237483
1.353467 0.190494 0.316699
1.427390 0.230319 0.336462
1.373762 0.163988 0.248070
1.429374 0.200636 0.263205
4.933737 0.037849 -1.855621
4.978809 0.297642 -1.851914
9.755486 2.191174 -1.845550
10.140947 2.835930 -1.853441
4.997313 0.647474 -1.825565
5.100208 0.933640 -1.824394
4.389586 0.469420 -1.838246
4.438062 0.712255 -1.833020
5.162669 1.309160 -1.825471
5.230511 1.611672 -1.815980
4.455151 1.034007 -1.821031
4.539994 1.308050 -1.821283
6.857569 0.071974 -1.850240
7.062737 0.435095 -1.845774
5.778605 -0.078668 -1.843496
5.831234 0.229890 -1.836284
7.110803 0.907151 -1.822820
7.360777 1.337112 -1.833810
5.916797 0.625807 -1.827674
6.069871 0.972797 -1.832111
7.573632 1.877024 -1.837471
7.744396 2.350018 -1.826645
6.170149 1.404010 -1.828426
6.284459 1.774392 -1.823785
11.079999 0.112067 -1.859260
11.627631 0.754758 -1.854048
8.553267 -0.087935 -1.849487
8.798976 0.374550 -1.839324
12.037628 1.518687 -1.850457
12.764838 2.281266 -1.850792
9.048617 0.949274 -1.837106
9.369162 1.494551 -1.835787
14.173470 0.097025 -1.845244
14.789827 0.914653 -1.845845
1.409808 0.329658 0.273862
1.389872 0.355566 0.285007
15.562808 1.890418 -1.847739
16.758417 2.951371 -1.851281
11.111244 1.123912 -1.845980
11.507504 1.787897 -1.835473
17.925596 4.261788 -1.857679
19.214653 5.681878 -1.876035
12.128213 2.642427 -1.847829
12.644295 3.454465 -1.849423
50.694099 0.321601 -1.868870
1.384700 0.062076 0.165694
22.554962 -0.309793 -1.927816
24.810450 1.034844 -1.885933
1.274524 0.177075 0.179419
1.371703 0.216988 0.189211
27.271908 2.708626 -1.891358
31.348413 4.895217 -1.919201
1.230214 0.316528 0.200556
1.368877 0.378417 0.213030
36.382008 7.828225 -1.946158
1.420470 0.363152 0.135727
1.357550 0.030532 0.291486
1.405942 0.060908 0.309900
31.142725 -0.443330 0.660264
51.513710 2.129311 1.379279
1.354059 0.186241 0.316699
1.428107 0.225834 0.336462
1.374271 0.159671 0.248070
1.429998 0.196144 0.263205
4.913485 0.022363 -1.847256
4.974171 0.281655 -1.849658
9.760406 2.160093 -1.845159
10.153594 2.805111 -1.854188
5.010399 0.633111 -1.829985
5.095773 0.916253 -1.821522
4.392850 0.455804 -1.839077
4.442080 0.698602 -1.833837
5.163117 1.292042 -1.824069
5.267880 1.605249 -1.828241
4.458378 1.020004 -1.821031
4.558235 1.297894 -1.827508
6.869277 0.050470 -1.853614
7.071753 0.413380 -1.847953
5.797216 -0.097225 -1.850061
5.845159 0.212107 -1.840824
7.115532 0.885036 -1.823352
7.370647 1.315017 -1.835352
5.920621 0.607399 -1.828309
6.071020 0.953418 -1.831494
7.575724 1.852311 -1.836481
7.774050 2.332445 -1.832349
6.183847 1.386666 -1.831425
6.286321 1.753595 -1.822623
11.105880 0.077373 -1.863894
11.643715 0.719103 -1.856417
8.541268 -0.114616 -1.846752
8.804006 0.347068 -1.840206
12.024707 1.478729 -1.847533
12.756372 2.238385 -1.848357
9.047666 0.920455 -1.836252
9.379611 1.466030 -1.837017
14.169745 0.052486 -1.844667
14.806470 0.869017 -1.847777
1.410837 0.325227 0.273862
1.390982 0.351197 0.285007
15.562762 1.840824 -1.846955
16.779343 2.900751 -1.852729
11.114721 1.088996 -1.845980
11.505279 1.750531 -1.834081
17.940832 4.205898 -1.857902
19.232407 5.621480 -1.876035
12.136456 2.604308 -1.847829
12.647462 3.412647 -1.848176
46.078758 0.149913 -1.679603
78.219009 4.705490 -2.235099
22.591702 -0.381338 -1.931409
24.819553 0.957124 -1.886438
1.275074 0.173070 0.179419
1.372378 0.212677 0.189211
27.304104 2.625195 -1.893195
31.347860 4.794274 -1.918129
1.231202 0.312661 0.200556
1.370059 0.374114 0.213030
36.363449 7.704804 -1.943612
42.966263 11.628162 -2.060382
1.357639 0.026266 0.291486
1.406127 0.056490 0.309900
31.043207 -0.539390 0.658833
1.426635 0.029181 0.237483
1.354638 0.181986 0.316699
1.428809 0.221346 0.336462
1.374766 0.155352 0.248070
1.430607 0.191651 0.263205
4.919080 0.006904 -1.849537
4.986131 0.266677 -1.854170
9.769060 2.129830 -1.845550
10.160463 2.772674 -1.853814
4.997591 0.615624 -1.824092
5.107810 0.901907 -1.825112
4.394260 0.442000 -1.839077
4.447858 0.685219 -1.835470
5.170793 1.276694 -1.825471
5.247726 1.580977 -1.818705
4.465140 1.006777 -1.822632
4.541041 1.277462 -1.818171
6.855967 0.028881 -1.849678
7.067254 0.390819 -1.846318
5.789328 -0.115254 -1.847435
5.834453 0.193315 -1.836933
7.116363 0.862451 -1.822820
7.369035 1.290832 -1.833810
5.920612 0.588615 -1.827674
6.070227 0.933745 -1.830260
7.575850 1.827156 -1.834997
7.783200 2.308567 -1.832825
6.188173 1.367230 -1.831425
6.289956 1.733320 -1.822042
11.086389 0.042450 -1.860329
11.634111 0.681798 -1.854386
8.556440 -0.141756 -1.850399
8.805053 0.319405 -1.840206
12.046934 1.443017 -1.850457
12.775025 2.200332 -1.850183
9.060238 0.892955 -1.838387
9.382236 1.436252 -1.836607
14.193591 0.007942 -1.848127
14.795283 0.821707 -1.845845
1.411852 0.320793 0.273862
1.392079 0.346826 0.285007
15.562557 1.791255 -1.846171
16.766846 2.844341 -1.850075
11.116131 1.053894 -1.845615
11.516562 1.715263 -1.835125
17.955893 4.149963 -1.858126
19.242332 5.558818 -1.875205
12.150370 2.567381 -1.848816
12.671474 3.376486 -1.850359
45.867180 0.005256 -1.670918
1.385062 0.053375 0.165694
22.644138 -0.453444 -1.936514
24.876209 0.881112 -1.890987
1.275612 0.169064 0.179419
1.373039 0.208365 0.189211
27.338030 2.541784 -1.895185
31.341057 4.692506 -1.916655
1.232179 0.308792 0.200556
1.371228 0.369809 0.213030
36.348373 7.582407 -1.941297
1.422724 0.354220 0.135727
1.357715 0.022001 0.291486
1.406297 0.052073 0.309900
30.937393 -0.634686 0.657315
50.722790 1.777042 1.360972
1.355202 0.177729 0.316699
1.429497 0.216856 0.336462
1.375247 0.151033 0.248070
1.431202 0.187156 0.263205
4.939424 -0.008692 -1.857902
4.979543 0.250601 -1.851162
9.773786 2.098724 -1.845159
10.169124 2.740742 -1.853814
4.999500 0.599921 -1.824092
5.105105 0.884873 -1.822958
4.392004 0.427862 -1.837415
4.449989 0.671243 -1.835470
5.171134 1.259575 -1.824069
5.277862 1.572118 -1.828241
4.464699 0.991971 -1.821031
4.550349 1.264700 -1.820505
6.865620 0.007318 -1.852489
7.078052 0.369153 -1.849043
5.792715 -0.133544 -1.848748
5.836922 0.175050 -1.837582
7.122868 0.840529 -1.823885
7.382572 1.269347 -1.836380
5.931875 0.570880 -1.830848
6.075010 0.914963 -1.830877
7.574007 1.801580 -1.833017
7.784825 2.282447 -1.831398
6.190572 1.347386 -1.830826
6.293526 1.713043 -1.821460
11.092370 0.007613 -1.861398
11.642099 0.645588 -1.855402
8.554007 -0.168590 -1.849943
8.807962 0.291814 -1.840647
12.049446 1.404941 -1.850132
12.774082 2.158856 -1.848966
9.066891 0.864848 -1.839241
9.392508 1.407657 -1.837837
14.199483 -0.036672 -1.848991
14.799768 0.775332 -1.846121
1.412852 0.316356 0.273862
1.393161 0.342451 0.285007
15.568108 1.742358 -1.846171
16.801151 2.795931 -1.853212
11.131138 1.020018 -1.847802
11.516049 1.678211 -1.834081
17.955275 4.090465 -1.856560
19.232931 5.490663 -1.872298
12.146781 2.526813 -1.846843
12.712571 3.344767 -1.855351
45.689121 -0.138193 -1.663626
77.584328 4.178054 -2.214399
22.676441 -0.525399 -1.939728
24.876863 0.802895 -1.890819
1.276137 0.165056 0.179419
1.373687 0.204051 0.189211
27.341908 2.455539 -1.894879
31.343801 4.592283 -1.915850
1.233142 0.304920 0.200556
1.372383 0.365499 0.213030
36.344631 7.462581 -1.939677
1.423830 0.349748 0.135727
1.357777 0.017736 0.291486
1.406454 0.047655 0.309900
30.373474 -0.718107 0.649111
50.688156 1.616397 1.360061
1.355754 0.173471 0.316699
1.430172 0.212364 0.336462
1.375714 0.146712 0.248070
1.431783 0.182659 0.263205
4.935672 -0.024171 -1.856381
4.978455 0.234860 -1.850409
9.780330 2.068010 -1.845159
10.168195 2.706233 -1.851946
5.014296 0.585656 -1.829248
5.096828 0.866898 -1.818651
4.396951 0.414383 -1.839077
4.444857 0.656152 -1.832204
5.173242 1.242896 -1.823368
5.284576 1.556071 -1.828923
4.467793 0.977941 -1.821031
4.552525 1.249901 -1.819727
6.857932 -0.014205 -1.850240
7.073412 0.346612 -1.847408
5.792266 -0.151741 -1.848748
5.822316 0.156240 -1.832393
7.127389 0.818362 -1.824417
7.380808 1.245165 -1.834838
5.918526 0.550903 -1.825770
6.085378 0.897016 -1.833346
7.585292 1.779086 -1.834502
7.780773 2.254701 -1.828546
6.194774 1.327932 -1.830826
6.300723 1.693768 -1.822042
11.086436 -0.027204 -1.860329
11.640135 0.608798 -1.854725
8.563169 -0.195713 -1.852222
8.802987 0.263950 -1.839324
12.042031 1.365773 -1.848183
12.788598 2.120026 -1.850183
9.059832 0.835492 -1.837106
9.387203 1.376698 -1.835787
14.201278 -0.081299 -1.849280
14.806089 0.729031 -1.846673
1.413839 0.311916 0.273862
1.394230 0.338072 0.285007
15.587307 1.694914 -1.848000
16.784388 2.738934 -1.850075
11.132329 0.984872 -1.847438
11.519316 1.641739 -1.833733
17.983557 4.037493 -1.858350
19.232864 5.425325 -1.870430
12.141124 2.485895 -1.844540
12.726839 3.305810 -1.855975
45.612526 -0.281230 -1.660513
1.385370 0.044671 0.165694
22.708511 -0.597572 -1.942943
24.925077 0.726114 -1.894694
1.276649 0.161045 0.179419
1.374321 0.199734 0.189211
27.377302 2.372005 -1.897022
31.332396 4.490080 -1.914108
1.234095 0.301044 0.200556
1.373524 0.361185 0.213030
36.328747 7.340472 -1.937362
1.424921 0.345273 0.135727
1.357826 0.013470 0.291486
1.406597 0.043236 0.309900
30.129189 -0.806847 0.645578
50.686985 1.456958 1.359924
1.356293 0.169211 0.316699
1.430832 0.207870 0.336462
1.376169 0.142389 0.248070
1.432350 0.178159 0.263205
4.941122 -0.039752 -1.858662
4.979168 0.219217 -1.850409
9.786778 2.037271 -1.845159
10.189940 2.677801 -1.854561
5.017959 0.570099 -1.829985
5.103206 0.851513 -1.820087
4.400043 0.400721 -1.839909
4.448703 0.642455 -1.833020
5.177121 1.226636 -1.823368
5.258788 1.530381 -1.817343
4.469049 0.963522 -1.820231
4.558205 1.236084 -1.820505
6.857853 -0.035752 -1.850240
7.072544 0.324291 -1.846863
5.793649 -0.170003 -1.849404
5.832233 0.138212 -1.835636
7.128008 0.795758 -1.823885
7.390401 1.222936 -1.836380
5.925897 0.532790 -1.827674
6.086284 0.877612 -1.832729
7.598402 1.756967 -1.836481
7.795282 2.232407 -1.830448
6.197047 1.308076 -1.830225
6.309708 1.674960 -1.823204
11.094168 -0.062098 -1.861755
11.655769 0.572931 -1.857094
8.544991 -0.222108 -1.848119
8.811571 0.236524 -1.841088
12.050188 1.328355 -1.848833
12.791295 2.079193 -1.849574
9.064358 0.807191 -1.837533
9.401166 1.348614 -1.837837
14.183140 -0.125720 -1.846685
14.808307 0.682515 -1.846673
1.414812 0.307473 0.273862
1.395285 0.333691 0.285007
15.584664 1.645120 -1.846955
16.812508 2.689360 -1.852488
11.135367 0.949896 -1.847438
11.524416 1.605544 -1.833733
18.011679 3.984391 -1.860139
19.253643 5.365954 -1.870845
12.158546 2.449671 -1.846185
12.718034 3.260869 -1.852855
45.599422 -0.424397 -1.660021
1.385504 0.040319 0.165694
22.764238 -0.670672 -1.948426
24.947157 0.648349 -1.896379
1.277148 0.157034 0.179419
1.374942 0.195416 0.189211
27.390583 2.286483 -1.897481
31.322636 4.388289 -1.912499
1.235034 0.297165 0.200556
1.374652 0.356869 0.213030
36.288952 7.213899 -1.933658
1.425999 0.340795 0.135727
1.357862 0.009205 0.291486
1.406726 0.038817 0.309900
30.200459 -0.903768 0.646658
45.664333 1.166450 1.245389
1.356817 0.164949 0.316699
1.431478 0.203374 0.336462
1.376609 0.138065 0.248070
1.432902 0.173659 0.263205
4.935423 -0.055182 -1.856381
4.987237 0.203916 -1.853418
9.785440 2.004962 -1.843594
10.179296 2.640796 -1.850826
5.017876 0.554138 -1.829248
5.118741 0.837652 -1.825112
4.401281 0.386896 -1.839909
4.456118 0.629274 -1.835470
5.184600 1.211201 -1.824770
5.272593 1.516495 -1.820748
4.479235 0.950960 -1.823432
4.572728 1.224677 -1.825174
6.874979 -0.057504 -1.855301
7.086983 0.302696 -1.850677
5.781759 -0.187783 -1.845465
5.838313 0.120032 -1.837582
7.134307 0.773764 -1.824950
7.390393 1.199081 -1.835352
5.927541 0.514171 -1.827674
6.081481 0.857394 -1.830260
7.598212 1.731815 -1.834997
7.811594 2.210583 -1.832825
6.208604 1.290124 -1.832625
6.314939 1.655130 -1.823204
11.089983 -0.096906 -1.861042
11.649636 0.535933 -1.855740
8.548145 -0.249075 -1.849031
8.820072 0.209049 -1.842852
12.064115 1.291524 -1.850457
12.782153 2.036481 -1.847140
9.062956 0.778389 -1.836679
9.399543 1.318243 -1.836607
14.194549 -0.170439 -1.848415
14.812356 0.636082 -1.846949
1.415771 0.303027 0.273862
1.396327 0.329306 0.285007
15.583837 1.595558 -1.846171
16.787537 2.631255 -1.848386
11.136335 0.914754 -1.847073
11.535256 1.570143 -1.834777
18.033819 3.929892 -1.861258
19.260818 5.302792 -1.869807
12.158441 2.409946 -1.844869
12.728215 3.220901 -1.852855
41.767414 -0.517773 -1.502954
1.385624 0.035966 0.165694
22.815746 -0.743993 -1.953532
24.994896 0.571072 -1.900254
1.277635 0.153021 0.179419
1.375549 0.191096 0.189211
27.421486 2.202320 -1.899319
31.342196 4.290687 -1.912902
1.235962 0.293284 0.200556
1.375767 0.352549 0.213030
36.289879 7.095667 -1.932385
1.427063 0.336314 0.135727
1.357884 0.004939 0.291486
1.406841 0.034397 0.309900
30.309397 -1.002433 0.648293
45.635788 1.022259 1.244661
1.357329 0.160686 0.316699
1.432110 0.198876 0.336462
1.377036 0.133740 0.248070
1.433441 0.169157 0.263205
4.937075 -0.070723 -1.857141
4.993407 0.188487 -1.855674
9.805156 1.976891 -1.846333
10.198955 2.611758 -1.853067
5.017743 0.538184 -1.828512
5.119504 0.821263 -1.824394
4.393407 0.372353 -1.835753
4.458073 0.615273 -1.835470
5.197517 1.196965 -1.828275
5.277330 1.499925 -1.820748
4.476811 0.935790 -1.821031
4.576553 1.210306 -1.825174
6.855575 -0.078808 -1.849678
7.084055 0.280265 -1.849588
5.796242 -0.206551 -1.850718
5.840552 0.101733 -1.838230
7.134785 0.751153 -1.824417
7.394123 1.175859 -1.835352
5.929127 0.495548 -1.827674
6.089795 0.839089 -1.832111
7.601723 1.707519 -1.834502
7.812892 2.184445 -1.831398
6.210756 1.270240 -1.832025
6.318256 1.634798 -1.822623
11.093559 -0.131799 -1.861755
11.657170 0.499600 -1.856756
8.541482 -0.275721 -1.847664
8.814835 0.181204 -1.841529
12.044553 1.251223 -1.846559
12.796296 1.997552 -1.848357
9.073146 0.750537 -1.838387
9.411393 1.289793 -1.838246
14.164261 -0.214525 -1.844091
14.826157 0.590041 -1.848605
1.416716 0.298578 0.273862
1.397354 0.324918 0.285007
15.598639 1.547558 -1.847477
16.825148 2.583069 -1.852005
11.145038 0.880217 -1.848166
11.538181 1.533635 -1.834429
18.042187 3.872392 -1.860810
19.281218 5.243308 -1.870222
12.162076 2.370992 -1.844212
12.738271 3.180901 -1.852855
41.871479 -0.650689 -1.507296
64.826004 2.670242 -1.814683
22.847120 -0.816911 -1.956746
25.018484 0.493005 -1.902107
1.278110 0.149007 0.179419
1.376143 0.186773 0.189211
27.442184 2.117228 -1.900390
31.345633 4.190877 -1.912231
1.236877 0.289400 0.200556
1.376867 0.348225 0.213030
36.294342 6.978250 -1.931343
1.428112 0.331829 0.135727
1.357893 0.000673 0.291486
1.406942 0.029978 0.309900
30.144226 -1.091640 0.645928
50.534538 0.975965 1.356190
1.357827 0.156421 0.316699
1.432727 0.194376 0.336462
1.377449 0.129413 0.248070
1.433965 0.164653 0.263205
4.940526 -0.086316 -1.858662
4.995827 0.172873 -1.856426
9.805543 1.944950 -1.845159
10.197591 2.577276 -1.851199
5.013856 0.521869 -1.826302
5.131272 0.806672 -1.827983
4.396369 0.358687 -1.836584
4.458176 0.601011 -1.834653
5.195766 1.179415 -1.826172
5.287440 1.484890 -1.822792
4.481526 0.922081 -1.821831
4.582112 1.196399 -1.825952
6.864888 -0.100520 -1.852489
7.081054 0.257856 -1.848498
5.789902 -0.224513 -1.848748
5.833277 0.083243 -1.835636
7.139027 0.728925 -1.824950
7.395871 1.152321 -1.834838
5.926872 0.476632 -1.826405
6.088632 0.819431 -1.830877
7.608943 1.684044 -1.834997
7.795394 2.153089 -1.825219
6.214715 1.250723 -1.832025
6.315951 1.613018 -1.820298
11.102928 -0.166819 -1.863537
11.650803 0.462648 -1.855402
8.552248 -0.303001 -1.850399
8.815359 0.153512 -1.841529
12.064134 1.214928 -1.849157
12.806415 1.957950 -1.848966
9.083252 0.722628 -1.840095
9.409579 1.259427 -1.837017
14.167474 -0.259112 -1.844667
14.821998 0.543221 -1.847777
1.417647 0.294124 0.273862
1.398369 0.320525 0.285007
15.595530 1.497789 -1.846432
16.799812 2.525118 -1.847903
11.147748 0.845191 -1.848166
11.540989 1.497113 -1.834081
18.032871 3.811188 -1.858350
19.299520 5.183213 -1.870430
12.173345 2.333498 -1.844869
12.736699 3.137999 -1.850983
41.779320 -0.780525 -1.503609
64.041046 2.436035 -1.789930
22.892185 -0.890612 -1.961284
25.073708 0.415333 -1.906656
1.278572 0.144990 0.179419
1.376723 0.182448 0.189211
27.460636 2.031856 -1.901309
31.344797 4.090539 -1.911293
1.237780 0.285512 0.200556
1.377954 0.343897 0.213030
36.312168 6.863428 -1.931112
1.429148 0.327340 0.135727
1.357888 -0.003594 0.291486
1.407029 0.025557 0.309900
30.250546 -1.190779 0.647534
45.595325 0.734710 1.243613
1.358312 0.152154 0.316699
1.433331 0.189873 0.336462
1.377849 0.125084 0.248070
1.434475 0.160146 0.263205
4.925438 -0.101457 -1.852579
5.001902 0.157378 -1.858682
9.807755 1.913386 -1.844376
10.218976 2.548580 -1.853814
5.019174 0.506466 -1.827775
5.126408 0.789371 -1.825112
4.397474 0.344871 -1.836584
4.460042 0.586999 -1.834653
5.199446 1.163082 -1.826172
5.275794 1.463666 -1.816661
4.484401 0.907994 -1.821831
4.582286 1.181055 -1.824395
6.858781 -0.121968 -1.850803
7.108753 0.236598 -1.856126
5.798604 -0.243144 -1.852031
5.852427 0.065207 -1.842122
7.141283 0.706488 -1.824950
7.409004 1.130566 -1.837409
5.937799 0.458695 -1.829578
6.094947 0.800806 -1.832111
7.619880 1.661345 -1.836481
7.822720 2.134273 -1.830448
6.211122 1.229736 -1.829626
6.328404 1.595063 -1.822623
11.090543 -0.201465 -1.861398
11.658109 0.426264 -1.856417
8.539581 -0.329387 -1.847664
8.819699 0.125877 -1.842411
12.073787 1.177575 -1.850132
12.798823 1.915622 -1.846836
9.075735 0.693366 -1.837960
9.417372 1.230370 -1.837837
14.154719 -0.303341 -1.842937
14.831552 0.496935 -1.848881
1.418564 0.289670 0.273862
1.399369 0.316131 0.285007
15.596209 1.448429 -1.845910
16.837118 2.476710 -1.851523
11.156233 0.810581 -1.849260
11.543683 1.460599 -1.833733
18.052540 3.756129 -1.859245
19.292643 5.116410 -1.867938
12.184493 2.295968 -1.845527
12.748413 3.098442 -1.851295
41.714729 -0.910376 -1.501069
62.482121 2.179556 -1.741049
22.933037 -0.964411 -1.965444
25.098801 0.336910 -1.908678
1.279021 0.140973 0.179419
1.377289 0.178122 0.189211
27.496725 1.947667 -1.903605
31.345619 3.990531 -1.910489
1.238671 0.281622 0.200556
1.379028 0.339566 0.213030
36.319805 6.746780 -1.930302
1.430169 0.322849 0.135727
1.357870 -0.007859 0.291486
1.407102 0.021136 0.309900
30.398500 -1.292388 0.649753
44.957638 0.582810 1.229040
1.358783 0.147886 0.316699
1.433920 0.185370 0.336462
1.378235 0.120755 0.248070
1.434971 0.155639 0.263205
4.932491 -0.117144 -1.855621
5.004223 0.141726 -1.859434
9.819498 1.883660 -1.845550
10.211677 2.512672 -1.850826
5.031849 0.491724 -1.832195
5.114107 0.770962 -1.819369
4.403980 0.331432 -1.839077
4.456436 0.572256 -1.832204
5.192087 1.144377 -1.821965
5.294855 1.451130 -1.822111
4.487231 0.893902 -1.821831
4.594889 1.168974 -1.828286
6.873714 -0.143893 -1.855301
7.090228 0.213616 -1.850677
5.788377 -0.260891 -1.848748
5.846927 0.046751 -1.840176
7.141548 0.683874 -1.824417
7.406788 1.106410 -1.835866
5.933534 0.439644 -1.827674
6.103091 0.782404 -1.833963
7.611791 1.634596 -1.833017
7.840630 2.112757 -1.833300
6.222452 1.211646 -1.832025
6.333384 1.575176 -1.822623
11.087890 -0.236257 -1.861042
11.667271 0.389920 -1.857771
8.550176 -0.356735 -1.850399
8.820052 0.098170 -1.842411
12.065636 1.138553 -1.848183
12.814554 1.876858 -1.848357
9.077868 0.664852 -1.837960
9.423131 1.201033 -1.838246
14.167545 -0.348171 -1.844955
14.838978 0.450532 -1.849709
1.419467 0.285212 0.273862
1.400355 0.311733 0.285007
15.614508 1.400646 -1.847739
16.823206 2.420662 -1.848868
11.156763 0.775399 -1.848895
11.554076 1.425065 -1.834777
18.046724 3.695837 -1.857231
19.299002 5.053247 -1.866900
12.189705 2.257325 -1.845198
12.754245 3.057451 -1.850672
40.103535 -1.000262 -1.435113
61.345806 1.946517 -1.705386
23.017406 -1.040503 -1.973763
25.143578 0.258559 -1.912385
1.279457 0.136954 0.179419
1.377842 0.173795 0.189211
27.524591 1.862740 -1.905289
31.352058 3.891300 -1.910087
1.239549 0.277730 0.200556
1.380088 0.335233 0.213030
36.332958 6.631223 -1.929839
1.431176 0.318355 0.135727
1.357839 -0.012125 0.291486
1.407162 0.016716 0.309900
30.246462 -1.380998 0.647592
45.105198 0.443095 1.232365
1.359241 0.143617 0.316699
1.434496 0.180864 0.336462
1.378608 0.116425 0.248070
1.435453 0.151130 0.263205
4.924704 -0.132401 -1.852579
5.000939 0.125893 -1.857929
9.825367 1.852804 -1.845550
10.217612 2.480113 -1.850452
5.033369 0.475915 -1.832195
5.118349 0.755175 -1.820087
4.403184 0.317476 -1.838246
4.467263 0.559440 -1.836287
5.199322 1.128838 -1.823368
5.277635 1.428491 -1.813937
4.491817 0.880144 -1.822632
4.575340 1.148574 -1.818171
6.890495 -0.165966 -1.860361
7.102405 0.191695 -1.853946
5.785643 -0.278974 -1.848091
5.854612 0.028454 -1.842770
7.139821 0.661095 -1.823352
7.414050 1.083709 -1.836895
5.936779 0.421128 -1.828309
6.105518 0.763228 -1.833963
7.626374 1.612649 -1.835491
7.841601 2.086600 -1.831874
6.228103 1.192444 -1.832625
6.351297 1.558516 -1.826692
11.085124 -0.271035 -1.860686
11.668438 0.353266 -1.857771
8.537343 -0.383033 -1.847664
8.822268 0.070484 -1.842852
12.082913 1.101870 -1.850457
12.814518 1.835741 -1.847444
9.085760 0.636724 -1.839241
9.426857 1.171426 -1.838246
14.141263 -0.369703 -1.841208
14.835709 0.427103 -1.849157
1.419913 0.282982 0.273862
1.400843 0.309533 0.285007
15.606811 1.375264 -1.846432
16.828951 2.394518 -1.849109
11.167778 0.758518 -1.850717
11.548482 1.405945 -1.833385
18.056402 3.668272 -1.857679
19.318462 5.025949 -1.868146
12.187412 2.237119 -1.844212
12.768634 3.039720 -1.852231
40.085941 -1.062817 -1.434457
59.516537 1.794125 -1.648212
23.071428 -1.079323 -1.979058
25.149931 0.219124 -1.912890
1.279671 0.134944 0.179419
1.378113 0.171631 0.189211
27.483709 1.816652 -1.901921
31.356153 3.841806 -1.909953
1.239984 0.275782 0.200556
1.380613 0.333065 0.213030
36.329578 6.571669 -1.929028
1.431674 0.316106 0.135727
25.722551 -0.736848 1.893037
1.407187 0.014506 0.309900
30.270226 -1.429754 0.647972
44.777935 0.369352 1.224896
1.359465 0.141482 0.316699
1.434778 0.178611 0.336462
1.378789 0.114260 0.248070
1.435689 0.148875 0.263205
4.922641 -0.140073 -1.851818
4.990016 0.117717 -1.853418
9.818622 1.835592 -1.843594
10.225313 2.464991 -1.851199
5.032258 0.467846 -1.831458
5.130603 0.748808 -1.824394
4.409124 0.310911 -1.840740
4.462704 0.551719 -1.833837
5.210253 1.122598 -1.826873
5.296194 1.424673 -1.820067
4.496798 0.873766 -1.824232
4.602131 1.147766 -1.829064
6.851856 -0.175659 -1.849116
7.100774 0.180483 -1.853402
5.807834 -0.289290 -1.855970
5.848974 0.019214 -1.840824
7.144691 0.650215 -1.824417
7.419567 1.072628 -1.837922
5.948789 0.412540 -1.832117
6.106710 0.753637 -1.833963
7.625102 1.599885 -1.834502
7.837363 2.072270 -1.829973
6.224340 1.181616 -1.830826
6.344450 1.546236 -1.823785
11.108291 -0.289116 -1.864963
11.668979 0.334938 -1.857771
8.536732 -0.396442 -1.847664
8.814564 0.056554 -1.841088
12.084629 1.082890 -1.850457
12.813473 1.815048 -1.846836
9.073100 0.621557 -1.836252
9.422860 1.155887 -1.837017
14.149921 -0.414433 -1.842649
14.842916 0.380658 -1.849985
1.420795 0.278520 0.273862
1.401808 0.305131 0.285007
15.626863 1.327547 -1.848523
16.838356 2.341916 -1.849351
11.162253 0.722941 -1.849260
11.558708 1.370369 -1.834429
18.069784 3.611918 -1.857902
19.322599 4.962252 -1.866900
12.186611 2.197439 -1.842896
12.755054 2.994130 -1.848488
39.587044 -1.173726 -1.414138
58.117088 1.568606 -1.604381
23.117638 -1.154333 -1.983785
25.218250 0.140564 -1.918618
1.280089 0.130924 0.179419
1.378645 0.167301 0.189211
27.550978 1.734131 -1.906667
31.362122 3.742570 -1.909551
1.240844 0.271886 0.200556
1.381652 0.328726 0.213030
36.340214 6.455771 -1.928450
1.432660 0.311607 0.135727
25.700161 -0.816995 1.891726
1.407225 0.010085 0.309900
29.910088 -1.506621 0.642775
44.944832 0.229629 1.228676
1.359902 0.137210 0.316699
1.435332 0.174103 0.336462
1.379141 0.109928 0.248070
1.436149 0.144365 0.263205
4.940662 -0.156218 -1.859423
4.988509 0.101993 -1.852665
9.826269 1.805088 -1.843985
10.238737 2.434235 -1.852320
5.031850 0.451878 -1.830722
5.138471 0.733506 -1.826547
4.408263 0.296947 -1.839909
4.473472 0.538841 -1.837920
5.208251 1.105085 -1.824770
5.306088 1.409503 -1.822111
4.486904 0.857300 -1.818630
4.600354 1.131953 -1.826730
6.874290 -0.197933 -1.855863
7.116695 0.158575 -1.857760
5.803124 -0.307316 -1.854657
5.862249 0.000901 -1.845365
7.152462 0.628253 -1.826015
7.426726 1.049870 -1.838951
5.933018 0.392798 -1.826405
6.107159 0.734215 -1.833346
7.631989 1.576309 -1.834997
7.843835 2.047639 -1.829973
6.229898 1.162399 -1.831425
6.352994 1.527207 -1.824948
11.113231 -0.324196 -1.866033
11.652240 0.297787 -1.854725
8.552945 -0.424179 -1.851766
8.834207 0.028985 -1.845499
12.086003 1.044756 -1.850132
12.834772 1.776987 -1.849270
9.098410 0.594514 -1.841376
9.434217 1.127230 -1.838656
14.130750 -0.458278 -1.840055
14.851960 0.334214 -1.851089
1.421664 0.274055 0.273862
1.402760 0.300725 0.285007
15.615145 1.277176 -1.846432
16.867268 2.291974 -1.852005
11.168398 0.688100 -1.849988
11.564913 1.334276 -1.834777
18.084948 3.555889 -1.858350
19.334240 4.900537 -1.866485
12.193455 2.159139 -1.842896
12.766322 2.954490 -1.848799
39.802856 -1.305446 -1.423150
56.862724 1.355415 -1.565102
23.127813 -1.227714 -1.985108
25.222553 0.061345 -1.918956
1.280493 0.126901 0.179419
1.379164 0.162968 0.189211
27.586149 1.649318 -1.908964
31.359854 3.642393 -1.908613
1.241692 0.267986 0.200556
1.382678 0.324383 0.213030
36.378025 6.344638 -1.929491
1.433632 0.307104 0.135727
23.541515 -0.820237 1.749981
1.407250 0.005664 0.309900
29.793386 -1.594505 0.641140
38.269081 0.071421 1.076616
1.360327 0.132937 0.316699
1.435872 0.169592 0.336462
1.379480 0.105594 0.248070
1.436596 0.139852 0.263205
4.925361 -0.171149 -1.853339
5.003626 0.086653 -1.858682
9.841547 1.775923 -1.845942
10.242510 2.401147 -1.851573
5.038805 0.436519 -1.832932
5.144444 0.717892 -1.827983
4.407359 0.282990 -1.839077
4.469707 0.524114 -1.835470
5.206192 1.087594 -1.822666
5.283241 1.385540 -1.811893
4.494986 0.844183 -1.821031
4.614616 1.120160 -1.831399
6.862126 -0.219119 -1.852489
7.099844 0.135820 -1.852857
5.788930 -0.324748 -1.850061
5.858440 -0.017523 -1.844068
7.160165 0.606245 -1.827612
7.431902 1.026802 -1.839465
5.941796 0.374599 -1.828944
6.111324 0.715253 -1.833963
7.635004 1.551943 -1.834502
7.852109 2.023476 -1.830448
6.237276 1.143493 -1.832625
6.354041 1.506341 -1.823785
11.112157 -0.359111 -1.866033
11.666911 0.261516 -1.857094
8.563237 -0.451700 -1.854501
8.834253 0.001229 -1.845499
12.089227 1.006778 -1.850132
12.834416 1.735846 -1.848357
9.096333 0.565693 -1.840522
9.433823 1.097121 -1.837837
14.143084 -0.503184 -1.842073
14.839074 0.287264 -1.849157
1.422517 0.269587 0.273862
1.403698 0.296317 0.285007
15.623034 1.228421 -1.846955
16.850771 2.235806 -1.849109
11.192101 0.654225 -1.853997
11.565133 1.297492 -1.834081
18.082365 3.496438 -1.856784
19.363043 4.843173 -1.867938
12.196288 2.120157 -1.842238
12.767838 2.912599 -1.847552
39.770599 -1.429453 -1.422003
56.271118 1.164183 -1.546522
23.161612 -1.302528 -1.988701
25.278421 -0.017871 -1.923673
1.280886 0.122878 0.179419
1.379669 0.158635 0.189211
27.595177 1.562872 -1.909270
31.371140 3.543861 -1.908613
1.242528 0.264084 0.200556
1.383690 0.320038 0.213030
36.417450 6.233684 -1.930649
1.434590 0.302599 0.135727
25.225891 -0.960139 1.860912
1.407261 0.001243 0.309900
24.707176 -1.395706 0.566836
38.275116 -0.048801 1.076752
1.360738 0.128663 0.316699
1.436398 0.165081 0.336462
1.379805 0.101260 0.248070
1.437028 0.135338 0.263205
4.922950 -0.186541 -1.852579
4.996462 0.070791 -1.855674
9.845145 1.744660 -1.845550
10.244265 2.367619 -1.850452
5.040151 0.420688 -1.832932
5.142978 0.701205 -1.826547
4.413675 0.269444 -1.841571
4.471331 0.510071 -1.835470
5.218765 1.073076 -1.826172
5.318476 1.377095 -1.823473
4.515658 0.833282 -1.829034
4.605587 1.102586 -1.825952
6.876748 -0.241271 -1.856988
7.092539 0.113365 -1.850677
5.782226 -0.342571 -1.848091
5.854571 -0.035920 -1.842770
7.163955 0.583899 -1.828144
7.433176 1.003185 -1.838951
5.956200 0.356668 -1.833386
6.126765 0.697613 -1.838283
7.645546 1.529072 -1.835986
7.864070 2.000254 -1.831874
6.240837 1.123893 -1.832625
6.355018 1.485487 -1.822623
11.107041 -0.393868 -1.865320
11.669646 0.224906 -1.857433
8.546223 -0.477682 -1.850854
8.826409 -0.026523 -1.843734
12.084460 0.968182 -1.848833
12.818254 1.692630 -1.845010
9.086360 0.536458 -1.837960
9.439168 1.067705 -1.838246
14.105838 -0.546174 -1.836884
14.839904 0.240640 -1.849157
1.423357 0.265117 0.273862
1.404622 0.291906 0.285007
15.638680 1.180205 -1.848523
16.855743 2.182594 -1.848868
11.180356 0.618329 -1.851446
11.575025 1.261802 -1.835125
18.087402 3.438503 -1.856113
19.370441 4.780396 -1.867108
12.202889 2.081827 -1.842238
12.775001 2.872032 -1.847239
39.857765 -1.558050 -1.425772
56.180557 0.985689 -1.543591
23.199139 -1.377818 -1.992672
25.284222 -0.097310 -1.924178
1.281266 0.118853 0.179419
1.380161 0.154299 0.189211
27.615883 1.477001 -1.910495
31.370218 3.443963 -1.907809
1.243352 0.260179 0.200556
1.384689 0.315689 0.213030
36.391563 6.111660 -1.927987
1.435534 0.298091 0.135727
23.763203 -0.977739 1.764929
1.407258 -0.003178 0.309900
24.654762 -1.470418 0.566135
37.790901 -0.167248 1.065732
1.361135 0.124387 0.316699
1.436909 0.160567 0.336462
1.380116 0.096924 0.248070
1.437446 0.130823 0.263205
4.926035 -0.202178 -1.854100
4.996660 0.055092 -1.855674
9.856379 1.714713 -1.846724
10.253565 2.335861 -1.850826
5.037740 0.404572 -1.831458
5.137759 0.684021 -1.823676
4.414500 0.255575 -1.841571
4.471098 0.495808 -1.834653
5.218435 1.055949 -1.824770
5.326416 1.361327 -1.824836
4.509228 0.817506 -1.825033
4.600074 1.085945 -1.822061
6.862532 -0.262312 -1.853052
7.108253 0.091334 -1.855036
5.783005 -0.360862 -1.848748
5.852538 -0.054305 -1.842122
7.165754 0.561387 -1.828144
7.438206 0.980085 -1.839465
5.945927 0.337357 -1.829578
6.117588 0.677057 -1.834580
7.654117 1.505778 -1.836976
7.872198 1.976015 -1.832349
6.242458 1.103955 -1.832025
6.365243 1.466825 -1.824367
11.111646 -0.429004 -1.866389
11.656499 0.187987 -1.855063
8.548567 -0.504772 -1.851766
8.826283 -0.054254 -1.843734
12.105152 0.931534 -1.851756
12.835269 1.653888 -1.846836
9.101658 0.508631 -1.840949
9.432749 1.036947 -1.836197
14.125803 -0.591433 -1.840055
14.844547 0.194079 -1.849709
1.424183 0.260644 0.273862
1.405532 0.287492 0.285007
15.640334 1.130931 -1.848261
16.856611 2.128878 -1.848144
11.184207 0.583302 -1.851810
11.588722 1.226493 -1.836865
18.098114 3.381666 -1.856113
19.369907 4.715737 -1.865447
12.205476 2.042839 -1.841581
12.783958 2.831887 -1.847239
39.922550 -1.686249 -1.428640
56.205364 0.809525 -1.544277
23.194696 -1.450689 -1.992672
25.355534 -0.177165 -1.930244
1.281633 0.114828 0.179419
1.380639 0.149963 0.189211
27.610430 1.389750 -1.909729
31.396755 3.347105 -1.908881
1.244163 0.256271 0.200556
1.385674 0.311338 0.213030
36.386940 5.993431 -1.926598
1.436463 0.293580 0.135727
23.702196 -1.049760 1.761126
1.407241 -0.007599 0.309900
24.500343 -1.538304 0.563945
37.678223 -0.285193 1.063181
1.361519 0.120111 0.316699
1.437406 0.156052 0.336462
1.380414 0.092588 0.248070
1.437850 0.126306 0.263205
4.932766 -0.218017 -1.857141
4.996808 0.039396 -1.855674
9.855913 1.682767 -1.845550
10.257022 2.302769 -1.850079
5.037131 0.388611 -1.830722
5.139882 0.667877 -1.823676
4.420732 0.241972 -1.844064
4.478076 0.482378 -1.837103
5.225405 1.040264 -1.826172
5.306992 1.338497 -1.815980
4.509967 0.803026 -1.824232
4.628552 1.077474 -1.832955
6.882765 -0.284821 -1.859237
7.108505 0.069004 -1.855036
5.774304 -0.378499 -1.846122
5.859906 -0.072750 -1.844716
7.165560 0.538737 -1.827612
7.439333 0.956461 -1.838951
5.946957 0.318677 -1.829578
6.119685 0.657836 -1.834580
7.655003 1.481003 -1.835986
7.885904 1.953168 -1.834251
6.242133 1.083703 -1.830826
6.371684 1.447253 -1.824948
11.102379 -0.463562 -1.864963
11.666887 0.151519 -1.856756
8.562485 -0.532638 -1.855413
8.822168 -0.081956 -1.842852
12.106052 0.893362 -1.851431
12.838440 1.613308 -1.846531
9.093453 0.479550 -1.838814
9.443744 1.008162 -1.837837
14.094220 -0.634423 -1.835731
14.843104 0.147416 -1.849433
1.424995 0.256168 0.273862
1.406428 0.283074 0.285007
15.649745 1.082187 -1.849045
16.886858 2.078853 -1.851040
11.187949 0.548251 -1.852175
11.580767 1.188843 -1.834777
18.120380 3.326924 -1.857455
19.392359 4.656724 -1.866278
12.211835 2.004481 -1.841581
12.794723 2.792132 -1.847552
39.579697 -1.796141 -1.414793
56.209629 0.632954 -1.544340
23.172146 -1.522362 -1.990970
25.370794 -0.256973 -1.931592
1.281987 0.110800 0.179419
1.381103 0.145624 0.189211
27.618643 1.303178 -1.910035
31.419025 3.249686 -1.909685
1.244962 0.252361 0.200556
1.386645 0.306983 0.213030
36.381939 5.875276 -1.925209
1.437378 0.289065 0.135727
23.511406 -1.115130 1.748800
1.407210 -0.012020 0.309900
24.335764 -1.604578 0.561610
37.455212 -0.401348 1.058126
1.361890 0.115832 0.316699
1.437890 0.151535 0.336462
1.380698 0.088251 0.248070
1.438240 0.121788 0.263205
4.924668 -0.233126 -1.854100
5.008027 0.023807 -1.860186
9.857281 1.651154 -1.844768
10.264206 2.270532 -1.850079
5.042038 0.373038 -1.832195
5.145657 0.652213 -1.825112
4.423287 0.228165 -1.844895
4.472310 0.467505 -1.833837
5.226807 1.023490 -1.825471
5.302058 1.319503 -1.812574
4.507046 0.787936 -1.821831
4.626534 1.061661 -1.830621
6.883753 -0.306537 -1.859799
7.083672 0.046414 -1.847953
5.784392 -0.397467 -1.850061
5.852081 -0.091077 -1.842122
7.169140 0.516352 -1.828144
7.440384 0.932836 -1.838437
5.951718 0.300165 -1.830848
6.119830 0.638400 -1.833963
7.669143 1.458723 -1.838460
7.880687 1.925578 -1.831398
6.251153 1.065023 -1.832625
6.361273 1.423823 -1.820298
11.089074 -0.497884 -1.862824
11.663363 0.114814 -1.856079
8.551056 -0.558873 -1.853134
8.821867 -0.109674 -1.842852
12.098954 0.854647 -1.849807
12.837563 1.572231 -1.845618
9.106627 0.451524 -1.841376
9.450759 0.978900 -1.838656
14.100065 -0.679090 -1.836884
14.867263 0.100990 -1.852745
1.425793 0.251690 0.273862
1.407311 0.278655 0.285007
15.653068 1.033019 -1.849045
16.867682 2.022682 -1.847903
11.199439 0.513530 -1.853997
11.588362 1.152856 -1.835473
18.107265 3.265784 -1.854771
19.393349 4.592556 -1.864824
12.212227 1.965181 -1.840594
12.797640 2.750668 -1.846616
40.026928 -1.942753 -1.433392
56.351269 0.457575 -1.548704
23.175194 -1.595704 -1.991726
25.453558 -0.337697 -1.938668
1.282329 0.106772 0.179419
1.381554 0.141285 0.189211
27.618616 1.216239 -1.909729
31.429077 3.150970 -1.909685
1.245749 0.248449 0.200556
1.387603 0.302625 0.213030
36.390350 5.759404 -1.924630
1.438279 0.284548 0.135727
23.663246 -1.197018 1.759028
1.407165 -0.016441 0.309900
24.161037 -1.669121 0.559128
30.670115 -0.429714 0.903607
1.362247 0.111554 0.316699
1.438359 0.147018 0.336462
1.380968 0.083913 0.248070
1.438615 0.117269 0.263205
4.927606 -0.248801 -1.855621
5.000664 0.008024 -1.857177
9.862420 1.620180 -1.844768
10.284719 2.241238 -1.852693
5.056172 0.358050 -1.837351
5.153235 0.636760 -1.827265
4.418529 0.214036 -1.842402
4.477388 0.453843 -1.835470
5.237360 1.008446 -1.828275
5.339009 1.311068 -1.824836
4.516732 0.774973 -1.825033
4.613694 1.043376 -1.823617
6.877006 -0.327864 -1.858112
7.114572 0.024379 -1.856671
5.773697 -0.414917 -1.846778
5.849874 -0.109433 -1.841473
7.180346 0.494456 -1.830806
7.447113 0.909940 -1.839465
5.954527 0.281549 -1.831482
6.123697 0.619371 -1.834580
7.656532 1.431476 -1.834007
7.892359 1.902197 -1.832825
6.260117 1.046301 -1.834425
6.369449 1.404672 -1.821460
11.087455 -0.532717 -1.862824
11.675491 0.078280 -1.858109
8.553143 -0.586011 -1.854045
8.825379 -0.137435 -1.843734
12.119304 0.817794 -1.852730
12.862061 1.534276 -1.848661
9.106048 0.422829 -1.840949
9.463524 0.950211 -1.840705
14.080074 -0.722435 -1.834289
14.899199 0.054457 -1.857161
1.426576 0.247210 0.273862
1.408179 0.274232 0.285007
15.664152 0.984326 -1.850090
16.889727 1.971549 -1.849833
11.208858 0.478663 -1.855455
11.599767 1.117220 -1.836865
18.127224 3.210605 -1.855889
19.417362 4.533885 -1.865862
12.226137 1.928021 -1.841909
12.815877 2.712516 -1.848176
33.977982 -1.752236 -1.185296
51.564827 0.254507 -1.399379
23.150208 -1.667046 -1.989835
25.466318 -0.417869 -1.939847
1.282658 0.102744 0.179419
1.381991 0.136944 0.189211
27.642227 1.130268 -1.911260
31.452724 3.053584 -1.910623
1.246523 0.244534 0.200556
1.388547 0.298265 0.213030
36.372742 5.639576 -1.922547
1.439166 0.280028 0.135727
23.764982 -1.277139 1.765978
1.407107 -0.020861 0.309900
24.113794 -1.741942 0.558515
37.337997 -0.634804 1.055530
1.362591 0.107274 0.316699
1.438813 0.142499 0.336462
1.381225 0.079575 0.248070
1.438977 0.112750 0.263205
4.917567 -0.263735 -1.851818
5.021050 -0.007611 -1.865450
9.861650 1.588270 -1.843594
10.280190 2.206416 -1.850452
5.049849 0.341701 -1.834405
5.160766 0.621266 -1.829419
4.426451 0.200441 -1.845726
4.482423 0.440153 -1.837103
5.236818 0.991310 -1.826873
5.335800 1.292484 -1.822111
4.526381 0.761956 -1.828234
4.631317 1.032162 -1.829842
6.891274 -0.350303 -1.862610
7.122311 0.002059 -1.858850
5.772365 -0.433052 -1.846778
5.860852 -0.128007 -1.845365
7.179941 0.471778 -1.830274
7.446098 0.886071 -1.838437
5.951591 0.262691 -1.830213
6.127505 0.600325 -1.835197
7.664806 1.408104 -1.834997
7.898295 1.877394 -1.832825
6.252069 1.024825 -1.830826
6.385041 1.387139 -1.824948
11.071971 -0.566808 -1.860329
11.675680 0.041602 -1.858109
8.539608 -0.612006 -1.851310
8.828806 -0.165220 -1.844617
12.117873 0.779473 -1.852080
12.864854 1.493632 -1.848357
9.105380 0.394143 -1.840522
9.462567 0.920088 -1.839885
14.085638 -0.767108 -1.835442
14.879489 0.007607 -1.854401
1.427346 0.242728 0.273862
1.409034 0.269807 0.285007
15.669147 0.935229 -1.850351
16.884005 1.917120 -1.848386
11.206376 0.443303 -1.854726
11.591455 1.079653 -1.834777
18.127426 3.151956 -1.854771
19.421820 4.470621 -1.864824
12.228232 1.889010 -1.841252
12.805002 2.668175 -1.845056
34.233692 -1.873469 -1.196030
51.575367 0.092543 -1.399691
23.125004 -1.738247 -1.987944
25.520672 -0.498901 -1.944565
1.282974 0.098714 0.179419
1.382414 0.132602 0.189211
27.665567 1.044161 -1.912791
31.470110 2.955517 -1.911159
1.247285 0.240617 0.200556
1.389477 0.293901 0.213030
36.392262 5.525586 -1.922663
1.440038 0.275506 0.135727
24.645454 -1.403084 1.824197
1.407034 -0.025282 0.309900
24.086267 -1.816007 0.558194
37.283836 -0.751084 1.054346
1.362921 0.102993 0.316699
1.439254 0.137978 0.336462
1.381468 0.075235 0.248070
1.439324 0.108229 0.263205
4.922252 -0.279526 -1.854100
5.004322 -0.023392 -1.858682
9.870466 1.557885 -1.844376
10.294754 2.175755 -1.851946
5.050898 0.325836 -1.834405
5.151575 0.603691 -1.825112
4.412515 0.186008 -1.839077
4.483783 0.426070 -1.837103
5.239907 0.974854 -1.826873
5.325219 1.272151 -1.816661
4.516081 0.745715 -1.822632
4.636334 1.018013 -1.830621
6.874810 -0.371064 -1.858112
7.106887 -0.020327 -1.854491
5.786038 -0.452429 -1.852031
5.854746 -0.146301 -1.843419
7.183311 0.449334 -1.830806
7.454602 0.863362 -1.839979
5.959969 0.244271 -1.832752
6.127468 0.580885 -1.834580
7.678731 1.385708 -1.837471
7.904155 1.852573 -1.832825
6.262796 1.006360 -1.833225
6.385627 1.366258 -1.823785
11.070136 -0.601587 -1.860329
11.681667 0.004940 -1.859125
8.557057 -0.640341 -1.855868
8.832145 -0.193028 -1.845499
12.116322 0.741170 -1.851431
12.855736 1.451631 -1.846227
9.106572 0.365537 -1.840522
9.461512 0.889981 -1.839066
14.067353 -0.810426 -1.833136
14.865573 -0.039137 -1.852469
1.428102 0.238241 0.273862
1.409874 0.265378 0.285007
15.683886 0.886638 -1.851919
16.897833 1.864938 -1.849351
11.197885 0.407752 -1.852904
11.608520 1.044489 -1.837214
18.139200 3.095309 -1.854995
19.431890 4.408683 -1.864409
12.230206 1.849993 -1.840594
12.811389 2.627523 -1.844744
34.267532 -1.983373 -1.197668
51.681347 -0.069614 -1.402995
23.103550 -1.809644 -1.986432
25.540894 -0.579568 -1.946418
1.283278 0.094682 0.179419
1.382824 0.128258 0.189211
27.684654 0.957757 -1.914016
31.479239 2.856612 -1.911159
1.248035 0.236697 0.200556
1.390393 0.289534 0.213030
36.399563 5.409740 -1.922084
1.440897 0.270980 0.135727
25.206646 -1.515110 1.861436
1.406948 -0.029703 0.309900
24.152206 -1.897400 0.559245
30.716673 -0.719936 0.904791
1.363238 0.098710 0.316699
1.439680 0.133455 0.336462
51.789993 1.708248 1.840102
1.439657 0.103705 0.263205
4.926887 -0.295353 -1.856381
5.006077 -0.039122 -1.859434
9.857860 1.524209 -1.840854
10.290006 2.140965 -1.849705
5.051896 0.309963 -1.834405
5.149739 0.587059 -1.823676
4.411260 0.172081 -1.838246
4.494185 0.412865 -1.841186
5.246633 0.959039 -1.828275
5.352957 1.261129 -1.825517
4.532890 0.733781 -1.829034
4.632315 1.001842 -1.827508
6.888937 -0.393599 -1.862610
7.112560 -0.042673 -1.856126
5.782706 -0.470447 -1.851374
5.850475 -0.164608 -1.842122
7.182763 0.426652 -1.830274
7.447678 0.838818 -1.837409
5.964499 0.225668 -1.834021
6.129262 0.561628 -1.834580
7.673502 1.359913 -1.834997
7.913720 1.828613 -1.833776
6.262156 0.986097 -1.832025
6.391760 1.346587 -1.824367
11.078012 -0.636958 -1.862111
11.671770 -0.031763 -1.857433
8.543357 -0.666284 -1.853134
8.819793 -0.220523 -1.842852
12.122531 0.703312 -1.852080
12.860233 1.411226 -1.846227
9.111581 0.337053 -1.841376
9.468161 0.860610 -1.839885
14.066715 -0.854737 -1.833424
14.857453 -0.085804 -1.851365
1.428843 0.233754 0.273862
1.410701 0.260948 0.285007
15.684615 0.837262 -1.851658
16.891768 1.810559 -1.847903
11.210906 0.372937 -1.855091
11.609781 1.007842 -1.836865
18.142952 3.037335 -1.854324
19.455351 4.349801 -1.865447
12.239862 1.812134 -1.841252
12.817645 2.586870 -1.844432
39.121769 -2.391360 -1.397341
52.278584 -0.234348 -1.421638
23.085846 -1.881229 -1.985297
25.612661 -0.661629 -1.952652
1.283569 0.090650 0.179419
1.383220 0.123913 0.189211
27.699488 0.871149 -1.914935
31.511913 2.759818 -1.912768
1.248772 0.232775 0.200556
1.391296 0.285164 0.213030
36.412430 5.294797 -1.921852
1.441741 0.266452 0.135727
22.975172 -1.451129 1.714839
1.406848 -0.034122 0.309900
25.178484 -2.058745 0.574368
30.076637 -0.800017 0.890263
1.363541 0.094427 0.316699
1.440092 0.128931 0.336462
51.879028 1.548008 1.842752
1.439975 0.099182 0.263205
4.931471 -0.311208 -1.858662
5.005929 -0.054848 -1.859434
9.868421 1.494099 -1.842028
10.290909 2.107433 -1.848584
5.054702 0.294190 -1.835142
5.151558 0.570879 -1.823676
4.426325 0.158659 -1.844895
4.484555 0.397715 -1.836287
5.244084 0.941587 -1.826172
5.334937 1.239098 -1.817343
4.526114 0.718153 -1.825033
4.642640 0.988860 -1.830621
6.862766 -0.413643 -1.855301
7.114316 -0.065026 -1.856671
5.781199 -0.488611 -1.851374
5.848037 -0.182936 -1.841473
7.180218 0.403883 -1.829209
7.454118 0.815852 -1.838437
5.967073 0.206988 -1.834656
6.132891 0.542546 -1.835197
7.683468 1.336778 -1.836481
7.913746 1.802432 -1.832349
6.274658 0.967836 -1.835025
6.410936 1.329670 -1.829017
11.054352 -0.670394 -1.858190
11.679497 -0.068457 -1.858787
8.560628 -0.694753 -1.857692
8.824906 -0.248376 -1.844175
12.104976 0.664188 -1.848833
12.878360 1.372314 -1.848357
9.114548 0.308488 -1.841803
9.461069 0.829980 -1.837837
14.049553 -0.875816 -1.831118
14.851357 -0.109107 -1.850537
1.429208 0.231509 0.273862
1.411109 0.258732 0.285007
15.687890 0.812724 -1.851919
16.918278 1.786563 -1.850799
11.209511 0.355270 -1.854726
11.613312 0.989777 -1.837214
18.161428 3.011091 -1.855889
19.462158 4.319238 -1.865447
12.236834 1.792061 -1.840265
12.808138 2.563993 -1.842248
34.028461 -2.130290 -1.188246
52.346111 -0.316839 -1.423758
23.057070 -1.915315 -1.982839
25.659405 -0.703120 -1.956696
1.283710 0.088634 0.179419
1.383413 0.121740 0.189211
27.714775 0.828044 -1.916006
31.520182 2.710664 -1.913036
1.249136 0.230813 0.200556
1.391742 0.282979 0.213030
36.402912 5.235052 -1.920811
1.442158 0.264187 0.135727
22.757795 -1.473047 1.700678
1.406792 -0.036332 0.309900
24.952038 -2.079456 0.571099
30.159288 -0.849549 0.892176
1.363688 0.092285 0.316699
1.440293 0.126669 0.336462
51.825443 1.464966 1.840986
1.440129 0.096920 0.263205
4.927286 -0.318695 -1.857141
5.005837 -0.062711 -1.859434
9.890159 1.481452 -1.845942
10.311526 2.094829 -1.851946
5.058872 0.286441 -1.836615
5.154303 0.562998 -1.824394
4.430205 0.151809 -1.846558
4.485174 0.390670 -1.836287
5.243711 0.933030 -1.825471
5.344198 1.232441 -1.820067
4.527236 0.711043 -1.825033
4.631584 0.978830 -1.825174
6.865937 -0.424673 -1.856425
7.110356 -0.076174 -1.855581
5.782305 -0.497861 -1.852031
5.851525 -0.192228 -1.842770
7.188544 0.392998 -1.831339
7.461153 0.804785 -1.839979
5.956017 0.197288 -1.830848
6.137525 0.533258 -1.836432
7.695110 1.326322 -1.838955
7.924141 1.791737 -1.834251
6.279943 0.958539 -1.836224
6.399907 1.316847 -1.824948
11.055250 -0.687883 -1.858547
11.669519 -0.086751 -1.857094
8.545944 -0.707033 -1.854501
8.810854 -0.261871 -1.841088
12.129654 0.646384 -1.852730
12.862811 1.350191 -1.845618
9.116973 0.294229 -1.842230
9.472111 0.815986 -1.839885
14.056606 -0.920612 -1.832559
14.843019 -0.155691 -1.849433
1.429929 0.227018 0.273862
1.411915 0.254298 0.285007
15.678482 0.762880 -1.850351
16.902088 1.731149 -1.848144
11.208606 0.320003 -1.854362
