ply
format ascii 1.0
element vertex 1634
property float x
property float y
property float z
end_header
11.088123 -3.886958 -1.980457
11.976938 -3.472310 -1.994525
7.880105 -2.942506 -1.816211
8.448088 -2.655833 -1.850350
12.261490 -2.764088 -1.922232
12.648935 -2.175434 -1.830403
9.127470 -2.259910 -1.903718
9.976649 -1.906093 -1.975938
14.300657 -5.065450 -1.990538
15.365497 -4.505896 -2.012264
60.103691 -8.161928 3.159468
62.544182 -4.950155 3.799180
16.312923 -3.757212 -1.987777
18.042278 -3.147489 -2.009096
11.572250 -2.911620 -1.987744
12.332382 -2.408192 -1.998023
19.664530 -2.248099 -2.011571
21.711298 -1.294040 -2.054790
12.481626 -1.665520 -1.877759
12.947128 -1.044098 -1.830704
22.949610 -8.124507 -0.788491
22.150190 -6.482576 -0.510913
18.597881 -7.015691 -1.673310
24.598925 -7.755705 -1.967142
25.763775 -5.986765 -0.384236
1.363700 -0.262630 0.189211
23.426144 -5.932401 -1.642574
30.744184 -5.984564 -1.891859
65.524559 -7.594532 -0.124479
34.286041 -2.055763 0.370677
12.548643 -1.689805 -0.522887
45.260700 -3.614455 -2.105933
1.286956 -0.433149 0.291486
1.342796 -0.421049 0.309900
23.950438 -9.047836 0.579332
38.257172 -12.085408 1.118786
1.336648 -0.285541 0.316699
59.104870 -10.313753 5.835278
1.346614 -0.317402 0.248070
1.411426 -0.302064 0.263205
4.431486 -1.579355 -1.761325
4.588330 -1.373180 -1.771448
10.961042 -1.428487 -2.056093
11.556331 -0.895978 -2.055163
4.754784 -1.069586 -1.760003
4.943299 -0.845515 -1.759073
4.176588 -1.038038 -1.787547
4.289165 -0.830781 -1.776675
5.158742 -0.527026 -1.772888
5.341985 -0.275358 -1.771023
4.446732 -0.545726 -1.780214
4.623087 -0.323567 -1.783154
6.178497 -2.182894 -1.760841
6.541240 -1.944137 -1.774398
5.139858 -1.956236 -1.746328
5.301683 -1.704696 -1.744833
6.841907 -1.553860 -1.780758
7.324994 -1.262034 -1.820959
5.555367 -1.387440 -1.752780
5.838841 -1.132101 -1.767307
7.771333 -0.837490 -1.840934
8.220243 -0.457656 -1.860872
6.114589 -0.777273 -1.776837
6.359039 -0.479108 -1.777279
11.090686 -3.927061 -1.983309
11.965971 -3.509920 -1.994525
7.869002 -2.966556 -1.815756
8.434120 -2.680604 -1.849027
12.298895 -2.813251 -1.930027
12.568025 -2.202346 -1.818840
9.116539 -2.287612 -1.902864
9.959077 -1.935216 -1.973480
14.297708 -5.115041 -1.992556
15.330366 -4.547983 -2.009228
59.937271 -8.331121 3.152555
46.243652 -3.813046 2.862579
16.194880 -3.783465 -1.973407
18.047945 -3.206912 -2.011026
11.639225 -2.967560 -2.002321
12.409788 -2.463623 -2.013338
19.748156 -2.320655 -2.021861
21.711096 -1.362486 -2.055205
12.450929 -1.701200 -1.873483
12.928033 -1.083479 -1.828208
22.918325 -8.194539 -0.788245
25.439175 -7.527937 -0.618526
18.566450 -7.070529 -1.672365
24.551643 -7.825707 -1.965120
20.232601 -4.762802 -0.257352
1.362868 -0.266913 0.189211
23.390007 -6.001488 -1.641196
30.825079 -6.100796 -1.898694
65.494415 -7.799635 -0.124449
57.553947 -3.614697 0.482324
12.543272 -1.729220 -0.522887
45.255096 -3.757121 -2.106238
1.285589 -0.437190 0.291486
1.341467 -0.425265 0.309900
23.279371 -8.877251 0.569288
37.077858 -11.841912 1.091507
1.335744 -0.289739 0.316699
58.442799 -10.387805 5.775250
1.345611 -0.321631 0.248070
1.410470 -0.306496 0.263205
4.433450 -1.595814 -1.764367
4.573334 -1.384424 -1.766936
10.956501 -1.462916 -2.056093
11.533871 -0.930743 -2.051427
4.745968 -1.083248 -1.757793
4.942459 -0.861352 -1.759791
4.157454 -1.047059 -1.780067
4.299087 -0.846647 -1.782391
5.151474 -0.542614 -1.770785
5.352362 -0.292701 -1.775110
4.428641 -0.557538 -1.773011
4.609180 -0.337221 -1.777708
6.177023 -2.204251 -1.762527
6.538791 -1.965771 -1.775488
5.137208 -1.973745 -1.747642
5.296301 -1.721343 -1.744833
6.836991 -1.575347 -1.780758
7.309563 -1.283075 -1.817874
5.552817 -1.405360 -1.753415
5.846464 -1.152597 -1.771010
7.778288 -0.863000 -1.843408
8.201307 -0.482507 -1.856594
6.114008 -0.796733 -1.777437
6.357502 -0.499083 -1.777279
11.059776 -3.955216 -1.979744
11.956777 -3.548052 -1.994864
7.848735 -2.987072 -1.813020
8.423797 -2.706496 -1.848586
12.288074 -2.851425 -1.929703
12.516271 -2.233923 -1.811841
9.099844 -2.313807 -1.900729
9.951026 -1.966119 -1.973070
14.277848 -5.158582 -1.991979
15.314103 -4.595556 -2.008952
59.912785 -8.519661 3.152653
46.147888 -3.951198 2.857771
16.306355 -3.863775 -1.990128
17.893171 -3.237642 -1.993169
11.626040 -3.003119 -2.001592
12.264862 -2.475220 -1.988625
19.790085 -2.388702 -2.027453
21.668993 -1.428246 -2.051260
12.467008 -1.743357 -1.877101
12.906848 -1.122583 -1.825400
22.916893 -8.275349 -0.789310
25.440304 -7.615247 -0.619337
15.943627 -6.125211 -1.407648
23.130400 -7.454376 -1.841116
20.201984 -4.822607 -0.256994
1.362023 -0.271193 0.189211
23.357533 -6.071414 -1.640124
30.799889 -6.196430 -1.898292
12.501346 -1.507420 0.143672
57.596191 -3.799019 0.482583
12.527896 -1.767202 -0.522308
45.187347 -3.894504 -2.103385
1.284209 -0.441227 0.291486
1.340124 -0.429478 0.309900
22.520077 -8.667961 0.557843
35.986107 -11.618719 1.066278
1.334828 -0.293934 0.316699
58.368729 -10.563927 5.771323
1.344594 -0.325857 0.248070
1.409500 -0.310926 0.263205
4.419740 -1.606526 -1.760565
4.577837 -1.401449 -1.770696
10.957680 -1.498140 -2.057267
11.519140 -0.966014 -2.049186
4.749779 -1.099869 -1.760740
4.937889 -0.876558 -1.759073
4.145345 -1.057812 -1.775911
4.276691 -0.856323 -1.773409
5.153467 -0.559218 -1.772187
5.347660 -0.309315 -1.773748
4.439583 -0.573165 -1.778614
4.611774 -0.351959 -1.779264
6.159250 -2.219698 -1.759154
6.514150 -1.980775 -1.770039
5.130982 -1.989875 -1.747642
5.294468 -1.739137 -1.746130
6.828257 -1.595926 -1.779693
7.311208 -1.307033 -1.819417
5.550210 -1.423277 -1.754049
5.835348 -1.169496 -1.768541
7.775539 -0.887432 -1.843408
8.207508 -0.508726 -1.858495
6.113365 -0.816197 -1.778037
6.357811 -0.519201 -1.777860
11.047297 -3.989941 -1.979744
11.938015 -3.583346 -1.993510
7.852023 -3.016643 -1.816211
8.411540 -2.731753 -1.847704
12.267537 -2.887279 -1.927754
12.472225 -2.266593 -1.806059
9.086859 -2.340906 -1.899448
9.937120 -1.995849 -1.971431
14.235559 -5.193870 -1.987943
15.295797 -4.642499 -2.008400
91.206779 -13.275904 4.695297
46.089500 -4.092120 2.855139
16.338459 -3.925707 -1.996137
17.757915 -3.271001 -1.977726
11.574717 -3.028586 -1.993575
12.336159 -2.529797 -2.002896
1.251105 -0.130454 0.074480
21.608831 -1.492543 -2.045447
12.438040 -1.779114 -1.873154
12.924905 -1.165033 -1.828832
22.885157 -8.345243 -0.789064
25.383717 -7.685317 -0.618277
18.553198 -7.199331 -1.675579
23.057579 -7.511009 -1.836736
20.202276 -4.889832 -0.257352
1.361164 -0.275471 0.189211
23.305569 -6.136096 -1.637522
31.087269 -6.355662 -1.919335
12.512422 -1.548685 0.143592
62.434494 -4.312994 0.505860
1.350269 -0.171356 0.132210
45.228607 -4.041214 -2.106137
1.282817 -0.445259 0.291486
1.338768 -0.433686 0.309900
22.595211 -8.778608 0.559449
34.991196 -11.419737 1.043326
1.333898 -0.298126 0.316699
58.562428 -10.788997 5.793015
1.343563 -0.330079 0.248070
1.408517 -0.315352 0.263205
4.411205 -1.619109 -1.759044
4.568091 -1.414209 -1.768440
10.939324 -1.530622 -2.054528
11.521921 -1.002696 -2.050307
4.744492 -1.114350 -1.760003
4.940627 -0.893034 -1.761227
4.147276 -1.072228 -1.778404
4.300848 -0.875056 -1.785658
5.147964 -0.574970 -1.770785
5.326010 -0.324955 -1.766255
4.423234 -0.585102 -1.772211
4.606971 -0.366174 -1.777708
6.161251 -2.242355 -1.761965
6.506053 -2.000672 -1.769495
5.135242 -2.010166 -1.751581
5.285382 -1.754586 -1.744833
6.825084 -1.617822 -1.780225
7.303261 -1.329316 -1.818389
5.538376 -1.438765 -1.751511
5.846570 -1.190795 -1.773479
7.768865 -0.911391 -1.842418
8.205870 -0.534508 -1.858495
6.110770 -0.835399 -1.778037
6.359963 -0.539480 -1.779023
11.043944 -4.028020 -1.981526
11.930473 -3.621970 -1.994187
7.831627 -3.037038 -1.813477
8.393640 -2.755150 -1.845499
12.314044 -2.939205 -1.937172
12.480597 -2.308609 -1.808493
9.075681 -2.368444 -1.898594
9.928882 -2.026671 -1.971021
14.222883 -5.239941 -1.988520
15.283032 -4.691108 -2.008677
91.796875 -13.656615 4.726452
46.040627 -4.233624 2.853079
16.308716 -3.972766 -1.993786
17.774879 -3.331855 -1.981104
11.586042 -3.070521 -1.997583
12.359014 -2.574903 -2.008465
12.498739 -1.578715 -1.201845
21.508793 -1.553657 -2.035482
1.338608 -0.172311 -0.003391
12.923148 -1.205812 -1.829144
22.871944 -8.421944 -0.789638
25.391953 -7.774942 -0.619337
18.578667 -7.276524 -1.680495
23.069849 -7.595213 -1.839937
23.432665 -5.754021 -0.332238
1.360292 -0.279746 0.189211
23.284250 -6.208766 -1.637369
31.409124 -6.524037 -1.942791
12.477743 -1.584146 0.143743
62.430614 -4.509833 0.505908
20.571266 -3.050672 -0.994417
45.275356 -4.188770 -2.109194
1.281411 -0.449287 0.291486
1.337399 -0.437889 0.309900
22.576828 -8.853210 0.559595
34.003597 -11.216493 1.020510
1.332954 -0.302315 0.316699
1.416200 -0.291321 0.336462
1.342520 -0.334299 0.248070
1.407519 -0.319776 0.263205
4.411290 -1.634917 -1.761325
4.556540 -1.426377 -1.765432
10.920876 -1.563004 -2.051788
11.512842 -1.038372 -2.049186
4.760839 -1.134095 -1.768107
4.935959 -0.908223 -1.760509
4.156186 -1.088553 -1.784222
4.269437 -0.882818 -1.772592
5.144272 -0.590917 -1.770084
5.339980 -0.342575 -1.771704
4.421375 -0.598995 -1.772211
4.602124 -0.380363 -1.776151
6.143383 -2.257685 -1.758591
6.507095 -2.023359 -1.771674
5.106102 -2.017157 -1.743046
5.274454 -1.769402 -1.742887
6.812477 -1.637425 -1.778095
7.295244 -1.351563 -1.817360
5.533829 -1.456158 -1.751511
5.837207 -1.208024 -1.771627
7.771732 -0.936508 -1.843903
8.211904 -0.560789 -1.860397
6.106228 -0.854320 -1.777437
6.346796 -0.558498 -1.775535
11.031237 -4.062696 -1.981526
11.919036 -3.659433 -1.994187
7.811179 -3.057334 -1.810741
8.381236 -2.780288 -1.844617
12.306665 -2.978344 -1.937497
12.479115 -2.348891 -1.809406
9.073858 -2.398458 -1.899875
9.910959 -2.055498 -1.968562
14.206351 -5.284598 -1.988520
15.264435 -4.737929 -2.008125
1.435022 -0.192210 0.273862
46.074802 -4.382753 2.855826
16.409687 -4.052203 -2.009201
17.776031 -3.389894 -1.982552
11.519394 -3.091488 -1.986651
12.121474 -2.565667 -1.967044
12.499630 -1.618751 -1.202516
21.481987 -1.619603 -2.033198
13.292637 -1.988493 -2.019183
12.966498 -1.250863 -1.836632
22.854736 -8.497250 -0.790048
25.396055 -7.863516 -0.620272
15.698273 -6.201033 -1.388551
23.045874 -7.667651 -1.839937
23.408653 -5.826153 -0.332103
1.359407 -0.284018 0.189211
23.179949 -6.258922 -1.630632
31.661871 -6.680132 -1.961555
12.480635 -1.624387 0.143702
62.456024 -4.708932 0.506100
20.539871 -3.111966 -0.993144
45.214249 -4.326446 -2.106748
1.279994 -0.453310 0.291486
1.336017 -0.442089 0.309900
22.573067 -8.933687 0.559975
32.328903 -10.778131 0.981162
1.331998 -0.306501 0.316699
1.415277 -0.295769 0.336462
1.341463 -0.338515 0.248070
1.406507 -0.324196 0.263205
4.399216 -1.646136 -1.758283
4.559115 -1.442883 -1.768440
10.906213 -1.595863 -2.049831
11.499740 -1.073643 -2.047318
4.737396 -1.144139 -1.760003
4.929409 -0.923057 -1.759073
4.131680 -1.095880 -1.774249
4.291687 -0.901332 -1.784025
5.147968 -0.607762 -1.772187
5.344507 -0.359701 -1.773748
4.432169 -0.614718 -1.777813
4.626617 -0.396879 -1.787045
6.136260 -2.276973 -1.758591
6.517248 -2.048923 -1.776578
5.119007 -2.040975 -1.750268
5.272458 -1.787161 -1.744184
6.797943 -1.656502 -1.775433
7.294765 -1.375178 -1.818389
5.538379 -1.476019 -1.754684
5.816613 -1.222907 -1.766073
7.766830 -0.960674 -1.843408
8.198473 -0.585791 -1.857545
6.097851 -0.872664 -1.775638
6.354542 -0.579264 -1.778442
10.998145 -4.089741 -1.977605
11.901830 -3.695118 -1.993172
7.808773 -3.084743 -1.812565
8.376163 -2.807834 -1.845499
12.291502 -3.015570 -1.936523
12.450310 -2.384038 -1.806059
9.045532 -2.421337 -1.895178
9.906369 -2.087022 -1.968972
14.182273 -5.326406 -1.987367
15.243801 -4.784091 -2.007297
1.434411 -0.196717 0.273862
50.623550 -4.973380 3.118619
16.321886 -4.084845 -1.999011
17.771141 -3.446848 -1.983276
11.500142 -3.125063 -1.984828
12.063270 -2.593079 -1.957995
12.492513 -1.657746 -1.202293
21.484722 -1.687696 -2.034029
13.309717 -2.033864 -2.023130
13.003795 -1.295624 -1.843184
22.841021 -8.573937 -0.790621
25.369316 -7.942666 -0.620210
15.577054 -6.209612 -1.378151
23.044348 -7.747611 -1.841959
23.394110 -5.900647 -0.332193
1.358508 -0.288287 0.189211
23.110172 -6.317986 -1.626652
31.531443 -6.756243 -1.954049
12.463578 -1.661977 0.143763
46.268402 -3.641423 0.428435
37.048130 -5.753400 -1.962246
45.114956 -4.460068 -2.102366
1.278563 -0.457329 0.291486
1.334622 -0.446284 0.309900
23.703247 -9.468653 0.578193
29.739977 -10.021103 0.919774
1.331029 -0.310684 0.316699
1.414341 -0.300213 0.336462
1.340393 -0.342727 0.248070
1.405482 -0.328613 0.263205
4.397477 -1.661275 -1.759804
4.554560 -1.457198 -1.768440
10.883693 -1.627466 -2.046309
11.486530 -1.108844 -2.045450
4.735582 -1.159468 -1.760740
4.922813 -0.937859 -1.757637
4.129972 -1.109337 -1.775080
4.267381 -0.910367 -1.774225
5.138599 -0.622993 -1.769383
5.326463 -0.375382 -1.767617
4.428403 -0.628371 -1.777013
4.603315 -0.409577 -1.777708
6.111129 -2.289434 -1.752969
6.485073 -2.061325 -1.768950
5.098575 -2.051340 -1.745015
5.259647 -1.801298 -1.741590
6.796444 -1.678789 -1.776498
7.286608 -1.397373 -1.817360
5.517256 -1.488889 -1.748972
5.823915 -1.243509 -1.769776
7.759930 -0.984569 -1.842418
8.194654 -0.611406 -1.857069
6.102625 -0.892954 -1.778037
6.346973 -0.598709 -1.776698
10.985242 -4.124273 -1.977605
11.895808 -3.734250 -1.994187
7.799043 -3.109260 -1.812565
8.356204 -2.830412 -1.842852
12.236028 -3.042645 -1.928728
12.421407 -2.419028 -1.802712
9.037880 -2.449743 -1.895178
9.892102 -2.116515 -1.967333
14.150674 -5.365296 -1.985060
15.221140 -4.829572 -2.006192
1.433786 -0.201223 0.273862
50.579861 -5.129587 3.117017
16.406958 -4.161112 -2.012336
17.803091 -3.511051 -1.988585
11.494057 -3.162228 -1.985557
12.241796 -2.671306 -1.991758
12.479368 -1.695897 -1.201398
21.358364 -1.745447 -2.021364
13.252600 -2.067662 -2.014579
13.058626 -1.342413 -1.852543
22.810236 -8.644233 -0.790457
25.359489 -8.027137 -0.620708
15.714382 -6.321924 -1.394223
23.010456 -7.816773 -1.841116
23.381268 -5.975605 -0.332327
1.357595 -0.292554 0.189211
22.894236 -6.336089 -1.611036
31.490559 -6.851042 -1.952709
12.460278 -1.701399 0.143753
46.173012 -3.779955 0.428033
38.719711 -6.138827 -2.061436
45.347137 -4.626779 -2.115002
1.277120 -0.461344 0.291486
1.333213 -0.450474 0.309900
23.682652 -9.546819 0.578339
31.315781 -10.660263 0.958438
1.330046 -0.314864 0.316699
1.413391 -0.304655 0.336462
1.339309 -0.346937 0.248070
1.404443 -0.333027 0.263205
4.387062 -1.673076 -1.757523
4.549960 -1.471500 -1.768440
10.911476 -1.666763 -2.052962
11.506455 -1.147210 -2.049933
4.744533 -1.177542 -1.765897
4.925346 -0.954356 -1.759791
4.122961 -1.121330 -1.773418
4.282365 -0.927528 -1.782391
5.149620 -0.640818 -1.774290
5.332762 -0.392630 -1.770342
4.420970 -0.641459 -1.774612
4.598334 -0.423719 -1.776151
6.098529 -2.306564 -1.751282
6.489571 -2.085178 -1.772219
5.076383 -2.060877 -1.739107
5.257544 -1.819033 -1.742887
6.791136 -1.700132 -1.776498
7.284081 -1.420621 -1.817874
5.507070 -1.504690 -1.747068
5.797648 -1.257060 -1.762369
7.749116 -1.007917 -1.840439
8.200441 -0.637725 -1.858971
6.088476 -0.910380 -1.774438
6.345060 -0.618645 -1.776698
10.977747 -4.160868 -1.978675
11.882136 -3.771011 -1.993849
7.774801 -3.127886 -1.808918
8.345423 -2.856024 -1.842411
12.442536 -3.136009 -1.965428
12.435084 -2.462218 -1.806059
9.018844 -2.474990 -1.892616
9.893062 -2.149224 -1.968972
14.135595 -5.410436 -1.985349
15.207779 -4.877969 -2.006469
1.433147 -0.205726 0.273862
50.557537 -5.287843 3.116673
16.443718 -4.225543 -2.019129
17.756922 -3.559988 -1.984241
11.480280 -3.197259 -1.984828
12.289130 -2.721987 -2.001852
12.466107 -1.733983 -1.200503
21.217983 -1.801260 -2.007246
13.135023 -2.091388 -1.995832
13.148662 -1.393238 -1.867519
22.784832 -8.716565 -0.790539
25.332241 -8.106159 -0.620646
15.817969 -6.421628 -1.406892
22.982014 -7.887734 -1.840780
23.364313 -6.049532 -0.332372
1.356669 -0.296817 0.189211
22.707212 -6.361000 -1.597716
31.488369 -6.954226 -1.954049
12.433088 -1.737446 0.143863
46.083187 -3.918428 0.427659
38.162201 -6.173036 -2.029839
45.455544 -4.782105 -2.121320
1.275664 -0.465354 0.291486
1.331791 -0.454661 0.309900
23.665504 -9.626460 0.578544
30.468880 -10.479609 0.938855
1.329050 -0.319041 0.316699
1.412427 -0.309094 0.336462
1.338213 -0.351142 0.248070
1.403389 -0.337437 0.263205
4.381784 -1.686850 -1.757523
4.540020 -1.484088 -1.766184
10.879065 -1.696738 -2.047483
11.514525 -1.184534 -2.052174
4.730005 -1.189662 -1.761477
4.920490 -0.969474 -1.759073
4.122920 -1.135264 -1.775080
4.256220 -0.936017 -1.771775
5.147581 -0.656992 -1.774290
5.331501 -0.409381 -1.770342
4.422556 -0.655904 -1.776213
4.600651 -0.438492 -1.777708
6.098414 -2.328479 -1.753531
6.479323 -2.104380 -1.771129
5.089075 -2.084783 -1.746328
5.251803 -1.835541 -1.742887
6.789497 -1.722421 -1.777563
7.275787 -1.442759 -1.816846
5.513269 -1.525067 -1.750876
5.815987 -1.280077 -1.769776
7.738232 -1.031208 -1.838460
8.190651 -0.662882 -1.857069
6.083701 -0.929207 -1.773838
6.343086 -0.638576 -1.776698
10.946257 -4.188262 -1.975110
11.870233 -3.808321 -1.993849
7.773946 -3.155986 -1.811197
8.321645 -2.877172 -1.838883
12.505244 -3.193786 -1.977770
12.539729 -2.523664 -1.823709
9.007260 -2.502255 -1.891762
9.882434 -2.179460 -1.968152
14.098235 -5.446937 -1.982178
15.190494 -4.925113 -2.006192
96.210609 -15.863047 4.955634
50.588326 -5.451758 3.119420
16.441868 -4.280197 -2.020696
17.788462 -3.624415 -1.989550
11.472070 -3.233847 -1.985193
12.290130 -2.762721 -2.003592
12.454698 -1.772285 -1.199832
21.265726 -1.872555 -2.012852
13.136174 -2.133923 -1.997147
12.710114 -1.388025 -1.798569
22.710751 -8.770057 -0.788491
23.033039 -7.452734 -0.546140
15.788509 -6.467502 -1.405946
22.968420 -7.963800 -1.841790
23.302654 -6.111698 -0.331387
1.355730 -0.301078 0.189211
22.533682 -6.388620 -1.585469
31.616323 -7.086601 -1.964370
12.425590 -1.776210 0.143873
46.054710 -4.061788 0.427583
38.491276 -6.350659 -2.050325
45.281422 -4.907757 -2.113168
1.274196 -0.469359 0.291486
1.330356 -0.458842 0.309900
23.646242 -9.705327 0.578719
29.712223 -10.324517 0.921413
1.328041 -0.323215 0.316699
1.411449 -0.313530 0.336462
1.337103 -0.355345 0.248070
1.402323 -0.341845 0.263205
4.367860 -1.697209 -1.753721
4.545913 -1.501774 -1.770696
10.902723 -1.735601 -2.053354
11.526381 -1.222324 -2.055163
4.722645 -1.203579 -1.760003
4.917420 -0.984927 -1.759073
4.117583 -1.147712 -1.774249
4.283589 -0.955964 -1.785658
5.141780 -0.672656 -1.772888
5.339565 -0.426832 -1.773748
4.416852 -0.669224 -1.774612
4.593746 -0.452433 -1.775373
6.073187 -2.340652 -1.747908
6.467188 -2.122945 -1.769495
5.092955 -2.105140 -1.750268
5.251371 -1.853896 -1.744833
6.778455 -1.742282 -1.775966
7.269323 -1.465234 -1.816332
5.508450 -1.542380 -1.750876
5.789636 -1.293462 -1.762369
7.744550 -1.056855 -1.840934
8.196272 -0.689237 -1.858971
6.086404 -0.949221 -1.775638
6.344856 -0.658880 -1.777860
10.942216 -4.226195 -1.976892
11.860085 -3.846198 -1.994187
7.756795 -3.177418 -1.809374
8.321782 -2.906490 -1.841088
12.315652 -3.186227 -1.947240
12.585986 -2.574026 -1.832229
9.003115 -2.531608 -1.892616
9.865982 -2.208383 -1.966103
14.080444 -5.465478 -1.980736
15.188393 -4.950801 -2.007020
1.432162 -0.212477 0.273862
52.949791 -5.789174 3.256082
16.412115 -4.299952 -2.017561
17.928650 -3.682101 -2.007648
11.466976 -3.251863 -1.985193
12.281932 -2.781160 -2.002896
12.459764 -1.792996 -1.200727
21.375702 -1.915942 -2.024686
12.778613 -2.095735 -1.937289
12.527237 -1.388341 -1.769867
22.631767 -8.780353 -0.785623
23.040323 -7.495068 -0.546763
15.791212 -6.497618 -1.407270
19.633110 -6.845903 -1.544419
23.296892 -6.149319 -0.331476
1.355256 -0.303207 0.189211
22.247562 -6.344943 -1.563423
31.834883 -7.187933 -1.980185
1.260346 -0.158572 0.200556
46.088116 -4.137678 0.427774
38.313866 -6.383110 -2.040487
45.259758 -4.977357 -2.112454
1.273457 -0.471360 0.291486
1.329634 -0.460931 0.309900
23.647600 -9.749335 0.578981
28.976561 -10.120592 0.904062
1.327532 -0.325300 0.316699
1.410955 -0.315746 0.336462
1.336543 -0.357445 0.248070
1.401784 -0.344047 0.263205
4.375505 -1.708162 -1.758283
4.540024 -1.507764 -1.769192
10.894177 -1.751777 -2.052180
11.543986 -1.242487 -2.058898
4.715353 -1.209581 -1.757793
4.917699 -0.993010 -1.759791
4.112279 -1.153175 -1.772587
4.264247 -0.958793 -1.777492
5.135150 -0.679967 -1.770785
5.307014 -0.432776 -1.762168
4.413986 -0.675873 -1.773812
4.622379 -0.462418 -1.787823
6.083800 -2.355790 -1.752406
6.456526 -2.130717 -1.767315
5.072229 -2.105811 -1.743702
5.234165 -1.857148 -1.739644
6.773846 -1.752437 -1.775433
7.263223 -1.475895 -1.815304
5.502375 -1.549986 -1.749606
5.813605 -1.308289 -1.771010
7.742881 -1.069019 -1.840934
8.185501 -0.701312 -1.856594
6.083022 -0.958476 -1.775038
6.332390 -0.667688 -1.774373
10.935565 -4.243378 -1.976892
11.852154 -3.864216 -1.993849
7.758988 -3.192585 -1.811197
8.311679 -2.917636 -1.839765
12.385074 -3.225115 -1.959907
12.525761 -2.582332 -1.823404
8.993491 -2.544135 -1.891335
9.858680 -2.223026 -1.965284
14.072411 -5.513313 -1.982178
15.163352 -4.995409 -2.005641
67.098335 -11.380142 3.520181
58.120312 -6.536758 3.555387
16.398525 -4.351491 -2.017561
17.903387 -3.735589 -2.005959
11.466148 -3.290605 -1.987015
12.240488 -2.812302 -1.996979
19.573792 -2.894547 -2.010900
21.381462 -1.984175 -2.025931
12.754461 -2.132906 -1.934329
12.536556 -1.429228 -1.772051
22.605932 -8.852139 -0.785705
23.073652 -7.586084 -0.548633
15.557548 -6.458315 -1.385336
19.568253 -6.892375 -1.540543
23.242701 -6.213146 -0.330670
1.354296 -0.307463 0.189211
22.150906 -6.392600 -1.557299
31.975565 -7.325212 -1.991444
1.259841 -0.162531 0.200556
46.170479 -4.291279 0.428234
38.681366 -6.569563 -2.063288
45.216118 -5.116394 -2.111028
1.271970 -0.475358 0.291486
1.328179 -0.465106 0.309900
23.626083 -9.827428 0.579127
28.261839 -9.971341 0.887576
1.326504 -0.329469 0.316699
1.409956 -0.320178 0.336462
1.335414 -0.361642 0.248070
1.400696 -0.348449 0.263205
4.370118 -1.721899 -1.758283
4.528224 -1.519699 -1.766184
10.884749 -1.785349 -2.051397
11.557607 -1.280656 -2.062260
4.716921 -1.225820 -1.760003
4.916385 -1.008820 -1.760509
4.119117 -1.169132 -1.777573
4.264779 -0.972976 -1.779125
5.131134 -0.695835 -1.770084
5.329997 -0.451391 -1.771023
4.417268 -0.690618 -1.776213
4.573227 -0.472286 -1.767592
6.096002 -2.382655 -1.758591
6.453456 -2.152194 -1.768405
5.079501 -2.127641 -1.748955
5.224737 -1.872323 -1.738347
6.773896 -1.775196 -1.777031
7.254760 -1.497937 -1.814276
5.504764 -1.569377 -1.752145
5.783476 -1.320731 -1.762369
7.733730 -1.092506 -1.839450
8.198740 -0.728351 -1.860397
6.074333 -0.976649 -1.773238
6.339778 -0.688573 -1.777279
10.907533 -4.271938 -1.974041
11.834336 -3.899593 -1.992833
7.729161 -3.208670 -1.806183
8.298790 -2.942441 -1.838883
12.451168 -3.284296 -1.972898
12.511780 -2.620467 -1.822491
8.962931 -2.565861 -1.886211
9.836372 -2.250534 -1.962005
14.064218 -5.561150 -1.983619
15.141942 -5.041153 -2.004813
1.430798 -0.221472 0.273862
58.135197 -6.723429 3.557447
16.396263 -4.406093 -2.019129
17.829390 -3.778731 -1.998237
11.444430 -3.323295 -1.984828
12.248862 -2.854731 -2.000111
19.578354 -2.958122 -2.012466
21.450375 -2.058467 -2.033821
12.669934 -2.159549 -1.921173
13.446557 -1.573870 -1.917437
22.581726 -8.924587 -0.785869
23.030729 -7.652252 -0.548010
14.575488 -6.102644 -1.286256
19.471365 -6.927191 -1.533804
23.082212 -6.247844 -0.327401
1.353324 -0.311716 0.189211
22.172817 -6.474503 -1.560667
23.462667 -5.459735 -1.406130
1.259324 -0.166488 0.200556
50.919029 -4.891331 0.451138
38.890690 -6.731043 -2.076830
45.168072 -5.254743 -2.109397
1.270470 -0.479352 0.291486
1.326712 -0.469277 0.309900
23.609837 -9.907808 0.579361
27.572842 -9.826406 0.871683
1.325462 -0.333635 0.316699
1.408943 -0.324605 0.336462
1.334271 -0.365835 0.248070
1.399594 -0.352848 0.263205
4.366402 -1.736313 -1.759044
4.523428 -1.533917 -1.766184
10.882957 -1.820192 -2.052180
11.567194 -1.318485 -2.064875
4.711251 -1.240150 -1.759267
4.902215 -1.022032 -1.756202
4.117169 -1.182580 -1.778404
4.251015 -0.983963 -1.774225
5.121506 -0.710884 -1.767279
5.330426 -0.468289 -1.771704
4.413268 -0.704192 -1.775412
4.597384 -0.489236 -1.778486
6.029660 -2.378318 -1.740037
6.450315 -2.173673 -1.769495
5.057161 -2.136896 -1.743046
5.227739 -1.891905 -1.741590
6.755256 -1.792958 -1.773304
7.259484 -1.522671 -1.816846
5.479788 -1.580789 -1.745163
5.799705 -1.343527 -1.769158
7.726426 -1.116230 -1.838460
8.182867 -0.752901 -1.857069
6.080642 -0.997311 -1.776237
6.329973 -0.707667 -1.774954
10.901372 -4.309094 -1.975466
11.808925 -3.932420 -1.990464
7.719042 -3.232936 -1.806183
8.282152 -2.965888 -1.837118
12.436976 -3.322369 -1.972248
12.464801 -2.651613 -1.816405
8.966078 -2.597300 -1.888773
9.827344 -2.280987 -1.961595
14.054024 -5.608253 -1.984772
15.127909 -5.089326 -2.005089
1.430095 -0.225965 0.273862
60.919556 -7.238195 3.719404
16.374687 -4.455486 -2.018084
17.829081 -3.837215 -1.999685
11.433933 -3.359232 -1.984828
12.268598 -2.899933 -2.005332
19.451138 -3.001275 -1.999045
21.416088 -2.123131 -2.030914
12.544566 -2.178510 -1.901111
13.380729 -1.608912 -1.907765
26.073151 -10.403636 -0.941297
23.012262 -7.726470 -0.548197
14.459103 -6.107184 -1.276235
19.246862 -6.915804 -1.515608
1.247283 -0.316313 0.179419
1.352338 -0.315966 0.189211
1.204867 -0.330290 0.116823
20.356602 -4.807941 -1.193021
1.258795 -0.170443 0.200556
50.957146 -5.056578 0.451396
37.813568 -6.666321 -2.014677
12.595456 -1.524324 -0.436764
1.268958 -0.483341 0.291486
1.325231 -0.473442 0.309900
23.602528 -9.992092 0.579741
27.203089 -9.791396 0.863485
1.324407 -0.337797 0.316699
1.407916 -0.329030 0.336462
1.333115 -0.370025 0.248070
1.398479 -0.357243 0.263205
4.357500 -1.748625 -1.757523
4.527369 -1.551076 -1.769944
10.846260 -1.849026 -2.045918
11.566899 -1.355267 -2.065622
4.712714 -1.256410 -1.761477
4.902637 -1.038182 -1.757637
4.108202 -1.193953 -1.775911
4.267480 -1.001786 -1.783208
5.122954 -0.727515 -1.768682
5.310194 -0.483419 -1.764892
4.405612 -0.717139 -1.773011
4.604988 -0.504629 -1.782377
6.050644 -2.408721 -1.749033
6.437983 -2.192086 -1.767860
5.055626 -2.155020 -1.745015
5.219990 -1.907678 -1.740941
6.755169 -1.815693 -1.774901
7.245205 -1.543490 -1.814276
5.482067 -1.600155 -1.747702
5.788041 -1.360033 -1.766690
7.722881 -1.140498 -1.838460
8.178528 -0.778427 -1.856594
6.071837 -1.015441 -1.774438
6.327718 -0.727550 -1.774954
10.873172 -4.337454 -1.972615
11.792774 -3.968249 -1.989787
7.696308 -3.251826 -1.802992
8.269121 -2.990577 -1.836236
12.493115 -3.379595 -1.983616
12.466074 -2.692827 -1.817927
8.946632 -2.622126 -1.886211
9.818224 -2.311405 -1.961186
14.021659 -5.646438 -1.982466
15.108092 -5.135558 -2.004537
1.429378 -0.230457 0.273862
60.914349 -7.431712 3.720434
16.356787 -4.505848 -2.017561
17.803356 -3.890261 -1.997996
11.423324 -3.395136 -1.984828
12.267092 -2.940283 -2.006725
19.659487 -3.096982 -2.023874
21.506287 -2.200205 -2.041087
12.494937 -2.210261 -1.893875
13.328543 -1.645224 -1.900277
26.032925 -10.482503 -0.940970
22.991661 -7.800007 -0.548322
14.551500 -6.200371 -1.287769
19.073227 -6.921366 -1.501961
22.820992 -6.331036 -0.322250
1.351339 -0.320213 0.189211
25.413076 -7.598300 -1.823688
20.240452 -4.847826 -1.186051
1.258254 -0.174397 0.200556
53.467903 -5.474111 0.463557
37.753136 -6.778000 -2.012362
12.576726 -1.562191 -0.436050
1.267434 -0.487325 0.291486
29.614428 -10.097948 2.609184
23.571018 -10.066193 0.579741
26.174019 -9.514998 0.839303
1.323340 -0.341956 0.316699
1.406876 -0.333452 0.336462
1.331946 -0.374212 0.248070
1.397350 -0.361635 0.263205
4.350274 -1.761602 -1.756763
4.511946 -1.561712 -1.765432
10.844260 -1.883772 -2.046701
11.533316 -1.388142 -2.060019
4.712328 -1.272198 -1.762950
4.892043 -1.052047 -1.754766
4.102689 -1.206330 -1.775080
4.234076 -1.008179 -1.769326
5.118792 -0.743327 -1.767980
5.325506 -0.501604 -1.771023
4.406950 -0.731597 -1.774612
4.588724 -0.517524 -1.776151
6.064384 -2.436389 -1.755780
6.429242 -2.211682 -1.767315
5.052294 -2.172401 -1.746328
5.213971 -1.924068 -1.740941
6.743856 -1.835367 -1.773304
7.236540 -1.565440 -1.813248
5.482462 -1.619006 -1.749606
5.791149 -1.379941 -1.769158
7.715428 -1.164163 -1.837471
8.181843 -0.804669 -1.858020
6.059220 -1.032868 -1.771438
6.319698 -0.746775 -1.773210
10.846723 -4.366419 -1.970119
11.780249 -4.005278 -1.989787
7.684265 -3.275219 -1.802537
8.261519 -3.017204 -1.836677
12.524287 -3.430380 -1.990761
12.386079 -2.716455 -1.806668
8.936479 -2.649659 -1.885784
9.753757 -2.328748 -1.948892
14.069812 -5.717395 -1.992844
15.093760 -5.183637 -2.004813
1.428647 -0.234946 0.273862
65.737114 -8.227691 4.000396
16.348280 -4.558818 -2.018345
17.853090 -3.959841 -2.005717
11.405073 -3.428726 -1.983371
12.144826 -2.951600 -1.986188
19.551565 -3.142828 -2.012690
21.507181 -2.268583 -2.041918
12.435530 -2.239954 -1.884995
12.527408 -1.587872 -1.773611
26.009117 -10.568006 -0.941379
22.978394 -7.876076 -0.548696
14.548400 -6.253159 -1.289471
18.862307 -6.912238 -1.484944
22.637415 -6.356572 -0.318443
1.350326 -0.324457 0.189211
25.324205 -7.658411 -1.818483
23.487759 -5.699359 -1.411491
1.257699 -0.178349 0.200556
58.291733 -6.150721 0.486863
37.633461 -6.878553 -2.006575
12.528155 -1.596230 -0.433808
1.265897 -0.491304 0.291486
29.590103 -10.193526 2.609798
23.552128 -10.145743 0.579945
25.638908 -9.412302 0.827053
1.322258 -0.346112 0.316699
1.405821 -0.337870 0.336462
1.330764 -0.378394 0.248070
1.396207 -0.366023 0.263205
4.336175 -1.771714 -1.752960
4.498254 -1.572868 -1.761672
10.840221 -1.918177 -2.047092
11.491839 -1.419874 -2.052922
4.693981 -1.282997 -1.757057
4.897843 -1.069354 -1.758355
4.097139 -1.218684 -1.774249
4.257547 -1.027744 -1.781575
5.116431 -0.759405 -1.767980
5.312669 -0.517294 -1.766936
4.395603 -0.743856 -1.770610
4.601726 -0.533553 -1.782377
6.046046 -2.451060 -1.752406
6.414981 -2.229370 -1.765136
5.045444 -2.188262 -1.746328
5.206124 -1.939786 -1.740293
6.732488 -1.854987 -1.771706
7.235364 -1.588982 -1.814276
5.468276 -1.633466 -1.746433
5.783083 -1.397250 -1.767924
7.711733 -1.188396 -1.837471
8.173474 -0.829798 -1.856594
6.065337 -1.053571 -1.774438
6.321122 -0.767071 -1.774373
10.834773 -4.401218 -1.970476
11.765742 -4.041630 -1.989448
7.677510 -3.300893 -1.803448
8.248335 -3.041804 -1.835795
12.534355 -3.475551 -1.994333
12.350459 -2.749396 -1.802407
8.915020 -2.673755 -1.882795
9.820641 -2.377149 -1.964874
14.093868 -5.778909 -1.999475
15.073654 -5.229737 -2.004261
1.427902 -0.239433 0.273862
65.784218 -8.443545 4.004631
16.339602 -4.611781 -2.019129
17.916124 -4.032804 -2.015128
11.403646 -3.467420 -1.985193
12.223503 -3.011227 -2.002200
19.392570 -3.179598 -1.995690
21.484127 -2.334438 -2.040257
12.418734 -2.277211 -1.883350
12.504723 -1.624965 -1.770803
25.985033 -10.653462 -0.941789
22.970543 -7.954094 -0.549257
14.444712 -6.262264 -1.280773
18.930256 -7.004542 -1.493031
22.436596 -6.376077 -0.314233
1.349300 -0.328698 0.189211
24.771957 -7.575857 -1.776075
23.458109 -5.770273 -1.410687
1.257133 -0.182299 0.200556
58.204521 -6.326500 0.486537
37.387920 -6.954968 -1.993381
12.606285 -1.646273 -0.438088
1.264347 -0.495279 0.291486
29.588074 -10.296898 2.612253
23.536638 -10.226873 0.580208
25.115959 -9.310496 0.815076
1.321165 -0.350264 0.316699
1.404753 -0.342285 0.336462
1.329569 -0.382573 0.248070
1.395050 -0.370407 0.263205
4.342533 -1.790330 -1.758283
4.505546 -1.591246 -1.766936
10.834141 -1.952223 -2.047092
11.448326 -1.451116 -2.045450
4.691716 -1.298243 -1.757793
4.894459 -1.084736 -1.758355
4.096767 -1.232619 -1.775911
4.234762 -1.036456 -1.772592
5.112169 -0.775185 -1.767279
5.311018 -0.533981 -1.766936
4.391440 -0.757340 -1.769810
4.603688 -0.548422 -1.783933
6.024127 -2.464172 -1.747908
6.409765 -2.250143 -1.765681
5.014364 -2.193387 -1.737137
5.203553 -1.957447 -1.741590
6.728481 -1.876653 -1.772239
7.209570 -1.607152 -1.808621
5.468555 -1.652308 -1.748337
5.763867 -1.411855 -1.762987
7.702223 -1.211695 -1.835986
8.176625 -0.856060 -1.858020
6.054489 -1.071259 -1.772038
6.322480 -0.787383 -1.775535
10.824533 -4.436736 -1.971189
11.756714 -4.079858 -1.990125
7.652830 -3.318754 -1.799802
8.236907 -3.067026 -1.835354
12.527174 -3.515985 -1.994983
12.328258 -2.785161 -1.800277
8.902841 -2.700604 -1.881941
9.780785 -2.400142 -1.957907
13.180169 -5.450904 -1.858217
15.044057 -5.272501 -2.002329
1.427143 -0.243918 0.273862
1.418837 -0.212300 0.285007
16.330750 -4.664732 -2.019912
17.858837 -4.078965 -2.009578
11.379548 -3.499154 -1.982642
12.087805 -3.018386 -1.979227
19.210026 -3.211438 -1.976006
21.476686 -2.401921 -2.040257
12.413458 -2.316581 -1.883679
12.534813 -1.668862 -1.776418
25.968046 -10.741934 -0.942527
22.956768 -8.030168 -0.549631
14.297362 -6.251564 -1.267537
15.787131 -5.902561 -1.211497
22.153276 -6.370530 -0.308097
87.080429 -19.807968 -0.971361
24.719467 -7.644776 -1.773779
23.451487 -5.846824 -1.411491
1.256554 -0.186248 0.200556
58.190319 -6.509989 0.486566
37.032417 -7.009038 -1.973705
12.599071 -1.685608 -0.437986
1.262785 -0.499248 0.291486
29.559343 -10.391120 2.612560
23.528193 -10.311225 0.580587
24.464653 -9.157267 0.799956
1.320058 -0.354413 0.316699
1.403671 -0.346696 0.336462
1.328360 -0.386748 0.248070
1.393880 -0.374788 0.263205
4.331774 -1.801804 -1.756002
4.491781 -1.602327 -1.763176
10.835666 -1.987683 -2.048657
11.443710 -1.487075 -2.045450
4.685827 -1.312465 -1.757057
4.901967 -1.102508 -1.762662
4.084189 -1.242782 -1.771755
4.245682 -1.053187 -1.779125
5.106010 -0.790649 -1.765877
5.314928 -0.551218 -1.768979
4.389040 -0.771132 -1.769810
4.576322 -0.559894 -1.773039
6.037611 -2.491957 -1.754656
6.395399 -2.267724 -1.763501
5.026422 -2.217608 -1.744359
5.202693 -1.975776 -1.743536
6.720700 -1.897252 -1.771706
7.215806 -1.632313 -1.811706
5.459716 -1.668354 -1.747068
5.768645 -1.432208 -1.766073
7.700290 -1.236199 -1.836481
8.175828 -0.881946 -1.858495
6.058599 -1.091659 -1.774438
6.323774 -0.807711 -1.776698
10.794188 -4.463915 -1.967981
11.736394 -4.114180 -1.988771
7.631675 -3.338064 -1.797067
8.218093 -3.089484 -1.833149
12.480018 -3.545005 -1.988812
12.315592 -2.823002 -1.799669
8.896179 -2.729138 -1.882368
9.763692 -2.428520 -1.955858
13.150204 -5.486926 -1.856199
15.031157 -5.321054 -2.002881
1.426370 -0.248400 0.273862
1.418164 -0.216757 0.285007
16.300779 -4.711586 -2.017823
17.524763 -4.061112 -1.969522
11.368499 -3.534886 -1.982642
12.166136 -3.078387 -1.995238
19.393761 -3.305084 -1.998151
21.441366 -2.466231 -2.037350
12.462303 -2.366354 -1.893217
12.531467 -1.708496 -1.776731
25.952604 -10.831175 -0.943346
22.923887 -8.099592 -0.549382
14.223039 -6.272256 -1.261865
18.673199 -7.043442 -1.473824
22.113964 -6.434488 -0.307649
1.347208 -0.337169 0.189211
24.744797 -7.737922 -1.777759
23.442677 -5.922904 -1.412161
1.255963 -0.190195 0.200556
1.407787 -0.187511 0.213030
37.021976 -7.127617 -1.974399
12.585796 -1.724113 -0.437579
1.261210 -0.503213 0.291486
1.317631 -0.494200 0.309900
23.508482 -10.390761 0.580792
24.035351 -9.083223 0.790210
1.318938 -0.358559 0.316699
1.402575 -0.351104 0.336462
1.327139 -0.390919 0.248070
1.392695 -0.379165 0.263205
4.327794 -1.816129 -1.756763
4.488472 -1.617049 -1.763928
10.823588 -2.020622 -2.047483
11.394175 -1.517156 -2.036858
4.681681 -1.327179 -1.757057
4.882081 -1.114249 -1.756202
4.087206 -1.257789 -1.775080
4.231713 -1.063913 -1.774225
5.110895 -0.807893 -1.768682
5.294463 -0.566005 -1.762168
4.382991 -0.784250 -1.768209
4.572712 -0.574049 -1.772261
6.015602 -2.504953 -1.750158
6.388243 -2.287804 -1.763501
5.012541 -2.230283 -1.741733
5.178763 -1.985421 -1.737050
6.714707 -1.918356 -1.771706
7.201214 -1.652845 -1.809135
5.450829 -1.684362 -1.745798
5.756730 -1.448499 -1.763604
7.694458 -1.260065 -1.835986
8.163360 -0.906585 -1.856118
6.047638 -1.109279 -1.772038
6.306017 -0.825648 -1.772047
10.781925 -4.498565 -1.968337
11.723411 -4.151031 -1.988771
7.633606 -3.367564 -1.800257
8.208347 -3.115286 -1.833149
12.550328 -3.607802 -2.002778
12.345188 -2.870553 -1.805755
8.878239 -2.754152 -1.880233
9.761712 -2.460602 -1.957088
14.084346 -5.930762 -2.006682
15.012500 -5.367586 -2.002605
1.425582 -0.252880 0.273862
91.929344 -12.670629 5.522216
16.263071 -4.756059 -2.014687
17.734253 -4.168068 -1.997272
11.351714 -3.568802 -1.981548
12.232757 -3.135999 -2.009161
19.442011 -3.376273 -2.004861
21.395973 -2.529187 -2.033406
12.456743 -2.405872 -1.893546
12.516253 -1.746511 -1.775171
25.923975 -10.914987 -0.943592
22.919046 -8.178939 -0.550067
14.172361 -6.303101 -1.258650
18.641663 -7.098537 -1.472982
1.241099 -0.339766 0.179419
23.514442 -5.523865 -0.111320
24.743176 -7.822857 -1.779596
23.418154 -5.995043 -1.411759
1.255359 -0.194139 0.200556
1.407191 -0.191933 0.213030
37.432384 -7.328971 -1.999978
12.572403 -1.762551 -0.437171
1.259623 -0.507173 0.291486
1.316072 -0.498337 0.309900
23.495808 -10.473541 0.581113
23.546957 -8.983826 0.779007
1.317805 -0.362700 0.316699
1.401465 -0.355509 0.336462
1.325904 -0.395087 0.248070
1.391497 -0.383539 0.263205
4.318669 -1.828255 -1.755242
4.481625 -1.630517 -1.763176
10.817187 -2.054615 -2.047483
11.406877 -1.555293 -2.040220
4.677488 -1.341880 -1.757057
4.878556 -1.129581 -1.756202
4.083235 -1.270623 -1.775080
4.238981 -1.079843 -1.779125
5.104636 -0.823331 -1.767279
5.311359 -0.584602 -1.768979
4.387711 -0.799372 -1.771411
4.567228 -0.587962 -1.770705
6.007703 -2.523839 -1.750158
6.379213 -2.307215 -1.762956
5.007229 -2.246801 -1.742389
5.181338 -2.005053 -1.740293
6.701246 -1.937272 -1.769576
7.195987 -1.675460 -1.809135
5.452741 -1.703773 -1.748337
5.765069 -1.469810 -1.767924
7.684730 -1.283255 -1.834502
8.164332 -0.932655 -1.857069
6.042249 -1.127915 -1.771438
6.305291 -0.845702 -1.772629
10.756867 -4.527811 -1.966198
11.701024 -4.184541 -1.987078
7.614105 -3.387543 -1.797978
8.198520 -3.141058 -1.833149
12.542720 -3.648322 -2.003427
12.316859 -2.904825 -1.802712
8.862092 -2.779670 -1.878525
9.734956 -2.486461 -1.952990
14.069284 -5.976533 -2.007258
14.988106 -5.412043 -2.001501
1.424781 -0.257358 0.273862
91.889076 -12.959372 5.522216
16.249949 -4.807693 -2.014949
17.666975 -4.210950 -1.990515
11.334826 -3.602648 -1.980455
12.180884 -3.163609 -2.001504
19.294344 -3.412921 -1.989203
21.425447 -2.600902 -2.037350
12.427838 -2.440769 -1.889928
12.506789 -1.785273 -1.774546
25.917133 -11.008120 -0.944821
22.896999 -8.252253 -0.550192
14.105290 -6.326330 -1.253734
18.587631 -7.144953 -1.470118
25.431292 -7.577497 -0.386162
23.405518 -5.576028 -0.110080
24.667206 -7.884108 -1.775463
23.399202 -6.068583 -1.411759
1.254743 -0.198082 0.200556
12.543254 -1.543630 0.266737
36.365574 -7.238058 -1.938288
12.554935 -1.800363 -0.436560
1.258023 -0.511128 0.291486
1.314499 -0.502469 0.309900
23.470079 -10.550591 0.581230
22.531170 -8.678629 0.754916
1.316659 -0.366839 0.316699
1.400341 -0.359910 0.336462
36.075150 -11.589586 1.400479
1.390285 -0.387908 0.263205
4.316298 -1.843285 -1.756763
4.472994 -1.643330 -1.761672
10.799129 -2.086328 -2.045135
11.442812 -1.596732 -2.048065
4.689295 -1.361320 -1.763687
4.871344 -1.144067 -1.754766
4.068831 -1.280106 -1.770093
4.216093 -1.088251 -1.770142
5.102025 -0.839363 -1.767279
5.290802 -0.599260 -1.762168
4.390578 -0.814186 -1.773812
4.558047 -0.601385 -1.767592
5.978573 -2.533629 -1.743410
6.375553 -2.328551 -1.764046
5.008733 -2.266456 -1.745672
5.171483 -2.019961 -1.738996
6.691430 -1.957219 -1.768512
7.190687 -1.698059 -1.809135
5.434720 -1.716838 -1.743894
5.754890 -1.486511 -1.766073
7.678751 -1.307059 -1.834007
8.157501 -0.957859 -1.856118
6.031185 -1.145436 -1.769039
6.296912 -0.864748 -1.770885
10.728111 -4.555396 -1.963346
11.682256 -4.219283 -1.986063
7.605200 -3.412250 -1.798434
8.179502 -3.163308 -1.830943
12.531196 -3.687708 -2.003427
12.324986 -2.947608 -1.805450
8.851454 -2.806902 -1.878098
9.727096 -2.517033 -1.952990
13.034285 -5.583227 -1.846109
14.967305 -5.457752 -2.000949
1.423965 -0.261832 0.273862
1.416058 -0.230113 0.285007
16.230967 -4.857577 -2.014426
17.781075 -4.297031 -2.006441
11.325324 -3.638845 -1.980820
12.020336 -3.162587 -1.974006
19.299171 -3.476358 -1.990993
12.497598 -1.567889 -1.099357
12.410440 -2.477849 -1.888284
12.565647 -1.833838 -1.784842
25.911798 -11.102104 -0.946132
22.887873 -8.330278 -0.550753
14.143353 -6.396965 -1.259785
18.667328 -7.242826 -1.479384
25.376738 -7.648090 -0.385446
25.705635 -6.206752 -0.141548
23.054581 -7.446829 -1.647320
23.345274 -6.132976 -1.409347
1.254115 -0.202023 0.200556
12.548267 -1.584260 0.266785
36.479633 -7.380078 -1.946390
1.447135 -0.235400 0.135727
1.256411 -0.515077 0.291486
1.312914 -0.506596 0.309900
23.451382 -10.630893 0.581463
22.572775 -8.776104 0.756601
1.315500 -0.370973 0.316699
1.399203 -0.364307 0.336462
35.228806 -11.439292 1.373598
1.389060 -0.392274 0.263205
4.310485 -1.856836 -1.756763
4.471292 -1.658644 -1.763176
10.752126 -2.112209 -2.036917
11.447469 -1.634039 -2.049933
4.665402 -1.370176 -1.755584
4.874999 -1.161058 -1.757637
4.082091 -1.298501 -1.778404
4.233881 -1.106907 -1.779941
5.101208 -0.855707 -1.767980
5.300106 -0.617129 -1.766255
4.382601 -0.826925 -1.771411
4.574407 -0.618065 -1.775373
5.986441 -2.559252 -1.748471
6.364590 -2.347250 -1.762956
4.987868 -2.275841 -1.740420
5.156294 -2.032769 -1.735753
6.694481 -1.981000 -1.771174
7.181555 -1.719753 -1.808107
5.429299 -1.733904 -1.743894
5.731767 -1.499849 -1.759901
7.674606 -1.331176 -1.834007
8.154451 -0.983481 -1.856118
6.036916 -1.166227 -1.772038
6.290372 -0.884009 -1.769722
10.720976 -4.592192 -1.964772
11.668942 -4.255963 -1.986063
7.576725 -3.428042 -1.793876
8.165886 -3.187581 -1.830061
12.513878 -3.725357 -2.002453
12.292600 -2.980770 -1.801799
8.838875 -2.833492 -1.877244
9.721035 -2.548070 -1.953400
13.252673 -5.726629 -1.883585
14.940785 -5.501338 -1.999569
1.423136 -0.266305 0.273862
1.415328 -0.234560 0.285007
16.221317 -4.910275 -2.015210
17.752054 -4.349113 -2.004511
11.319445 -3.676241 -1.981913
11.905613 -3.172662 -1.954862
19.401510 -3.557913 -2.003966
12.526158 -1.611389 -1.102886
12.503088 -2.537433 -1.905386
13.490163 -2.010118 -1.933348
25.887796 -11.188220 -0.946623
22.861589 -8.402142 -0.550753
14.105087 -6.433074 -1.257894
18.566507 -7.271015 -1.472308
25.329639 -7.720757 -0.384908
25.670465 -6.283689 -0.141337
23.025387 -7.517357 -1.646861
23.323959 -6.205775 -1.409213
1.253474 -0.205962 0.200556
12.533308 -1.622410 0.266737
36.612701 -7.526919 -1.955649
1.446389 -0.239945 0.135727
1.254787 -0.519022 0.291486
1.311316 -0.510718 0.309900
23.430593 -10.710346 0.581668
22.546955 -8.847704 0.756647
1.314328 -0.375104 0.316699
1.398052 -0.368701 0.336462
34.275524 -11.248190 1.343120
1.387820 -0.396636 0.263205
4.299553 -1.868129 -1.754481
4.457363 -1.669480 -1.759416
10.764660 -2.149864 -2.040831
11.426721 -1.667759 -2.046945
4.664634 -1.385904 -1.757057
4.874960 -1.177225 -1.759073
4.069350 -1.308483 -1.774249
4.219777 -1.117461 -1.775042
5.102183 -0.872378 -1.769383
5.311219 -0.635276 -1.771023
4.374588 -0.839621 -1.769010
4.583401 -0.633886 -1.780042
5.960778 -2.570376 -1.742848
6.348155 -2.363911 -1.760232
4.994394 -2.297881 -1.745672
5.158689 -2.052414 -1.738996
6.684536 -2.000903 -1.770109
7.164838 -1.739610 -1.805023
5.431035 -1.753315 -1.746433
5.747278 -1.523120 -1.766690
7.676107 -1.356310 -1.835491
8.151321 -1.009094 -1.856118
6.021998 -1.182932 -1.768439
6.291354 -0.904296 -1.770885
10.693863 -4.620358 -1.962277
11.644407 -4.288537 -1.984032
7.571226 -3.454270 -1.795243
8.154014 -3.212509 -1.829620
12.502112 -3.764652 -2.002453
12.436817 -3.056807 -1.826143
8.829929 -2.861246 -1.877244
9.697836 -2.574618 -1.950121
12.688950 -5.529238 -1.796813
14.914140 -5.544814 -1.998189
1.422292 -0.270774 0.273862
91.741135 -13.821552 5.520957
16.219076 -4.965296 -2.017039
17.769144 -4.412473 -2.008372
11.304105 -3.710550 -1.981184
12.059207 -3.253832 -1.984796
19.429300 -3.626191 -2.008440
12.511171 -1.649454 -1.101848
12.388833 -2.554570 -1.887297
13.604904 -2.070691 -1.952691
23.574627 -10.274026 -0.844697
22.851959 -8.480165 -0.551314
14.075768 -6.473180 -1.256949
18.614037 -7.357054 -1.478710
25.364477 -7.818613 -0.386297
25.662245 -6.367183 -0.141495
23.052769 -7.606582 -1.650994
23.260021 -6.267127 -1.406130
1.252820 -0.209899 0.200556
12.534100 -1.662554 0.266766
36.921089 -7.711532 -1.975325
44.319633 -6.715607 -2.076381
1.253150 -0.522961 0.291486
1.309706 -0.514835 0.309900
23.418613 -10.793971 0.582018
22.537645 -8.925837 0.757102
1.313143 -0.379231 0.316699
1.396887 -0.373092 0.336462
32.193245 -10.675359 1.275035
1.386568 -0.400994 0.263205
4.297043 -1.883131 -1.756002
4.453834 -1.684121 -1.760168
10.717509 -2.175383 -2.032612
11.429201 -1.704791 -2.048439
4.649590 -1.397284 -1.752637
4.863976 -1.190796 -1.756202
4.061766 -1.320115 -1.772587
4.219779 -1.131637 -1.776675
5.097575 -0.888072 -1.768682
5.297991 -0.650638 -1.766936
4.370132 -0.852999 -1.768209
4.579562 -0.648035 -1.779264
5.970243 -2.596815 -1.748471
6.342501 -2.384513 -1.760777
4.982021 -2.311151 -1.743702
5.153975 -2.069307 -1.739644
6.676373 -2.021327 -1.769576
7.161216 -1.762566 -1.805537
5.421899 -1.769176 -1.745163
5.740625 -1.540683 -1.766073
7.656561 -1.377623 -1.831533
8.151968 -1.035175 -1.857069
6.016383 -1.201464 -1.767839
6.290377 -0.924327 -1.771466
10.677492 -4.653141 -1.961921
11.630877 -4.325098 -1.984032
7.556804 -3.476400 -1.794332
8.142066 -3.237394 -1.829179
12.493998 -3.805068 -2.003102
12.432910 -3.097286 -1.827056
8.804201 -2.883452 -1.873401
9.678349 -2.602052 -1.947662
12.780136 -5.617056 -1.814109
14.898500 -5.592332 -1.998465
1.421434 -0.275241 0.273862
1.413826 -0.243448 0.285007
16.195826 -5.013868 -2.015994
17.913130 -4.507783 -2.028159
11.286798 -3.744174 -1.980091
12.048924 -3.291701 -1.984796
19.421719 -3.687958 -2.008887
12.519731 -1.690585 -1.103302
12.290034 -2.574281 -1.871839
13.662770 -2.123312 -1.962987
23.547720 -10.350455 -0.844943
22.823330 -8.551213 -0.551252
14.127559 -6.550992 -1.264512
16.285061 -6.499241 -1.268950
25.364601 -7.906019 -0.386879
25.638237 -6.446800 -0.141442
23.023087 -7.677068 -1.650535
23.163189 -6.319245 -1.400769
1.252155 -0.213834 0.200556
12.510972 -1.699536 0.266680
37.267727 -7.906467 -1.997316
44.126575 -6.828333 -2.067515
1.251501 -0.526896 0.291486
1.308082 -0.518947 0.309900
23.391838 -10.870867 0.582135
23.670414 -9.459148 0.785565
1.311945 -0.383355 0.316699
1.395708 -0.377478 0.336462
32.144386 -10.771349 1.274530
1.385301 -0.405348 0.263205
4.287731 -1.895107 -1.754481
4.450255 -1.698756 -1.760920
10.768219 -2.221064 -2.044353
11.454877 -1.745353 -2.054416
4.664715 -1.417937 -1.760740
4.849328 -1.203430 -1.751895
4.052424 -1.331134 -1.770093
4.210908 -1.143485 -1.774225
5.091074 -0.903409 -1.767279
5.294054 -0.667053 -1.766255
4.376409 -0.868560 -1.772211
4.559255 -0.659882 -1.771483
5.953282 -2.611668 -1.745659
6.331375 -2.403075 -1.759687
4.967906 -2.323557 -1.741076
5.136908 -2.081275 -1.735753
6.666308 -2.041149 -1.768512
7.155643 -1.785054 -1.805537
5.407321 -1.783189 -1.741990
5.717377 -1.553802 -1.759901
7.656004 -1.402381 -1.832523
8.140966 -1.059801 -1.855168
6.012578 -1.220359 -1.767839
6.285548 -0.943807 -1.770885
10.655622 -4.683479 -1.960495
11.604304 -4.356793 -1.981663
7.538787 -3.496823 -1.792508
8.115542 -3.256468 -1.825209
12.476327 -3.842546 -2.002128
12.405860 -3.132009 -1.824317
8.802512 -2.913574 -1.875109
9.664455 -2.630917 -1.946433
12.483652 -5.509519 -1.768273
14.895263 -5.617816 -1.999293
1.421000 -0.277474 0.273862
1.413442 -0.245669 0.285007
16.187931 -5.039302 -2.015994
17.900249 -4.534460 -2.027435
11.267853 -3.757515 -1.977540
12.051340 -3.312696 -1.986188
19.497866 -3.734270 -2.018282
12.501287 -1.708127 -1.101641
12.367009 -2.610864 -1.885652
13.706270 -2.152036 -1.970474
23.549704 -10.395519 -0.845763
22.824842 -8.592672 -0.551751
14.093805 -6.562211 -1.262054
18.568056 -7.440254 -1.477700
25.354059 -7.946451 -0.386924
25.641653 -6.490486 -0.141627
23.018557 -7.715766 -1.651147
23.039667 -6.324577 -1.392861
1.251817 -0.215800 0.200556
12.472613 -1.714358 0.266507
36.589554 -7.822196 -1.957848
43.963825 -6.873968 -2.059669
1.250672 -0.528861 0.291486
1.307265 -0.521001 0.309900
