ply
format ascii 1.0
element vertex 1634
property float x
property float y
property float z
end_header
5.161728 -5.554920 -1.937294
5.524820 -5.346253 -1.888814
4.542302 -5.108007 -2.124078
4.938025 -4.976962 -2.112313
6.087063 -5.188776 -1.887445
6.641883 -5.091648 -1.894149
5.483306 -4.863670 -2.143358
5.855651 -4.668484 -2.115031
6.556556 -8.952077 -1.862111
7.407494 -9.032742 -1.859125
5.126238 -7.309168 -1.937006
5.693522 -7.265083 -1.935036
8.244420 -8.893639 -1.849482
9.523252 -9.268918 -1.900393
6.426974 -7.234021 -1.963498
7.063325 -7.134702 -1.951351
8.295792 -11.404468 -1.834866
9.323602 -11.440650 -1.837566
1.089393 -0.953655 0.273862
1.098831 -0.922356 0.285007
10.747889 -11.702775 -1.875694
12.484747 -12.213024 -1.905817
7.513666 -8.518497 -1.881330
8.309057 -8.463147 -1.873413
14.337153 -12.458140 -1.921652
16.525717 -12.857309 -1.970084
9.449811 -8.530115 -1.900781
10.450077 -8.485437 -1.905269
25.040358 -34.453636 -1.536629
30.459612 -37.279747 -1.292576
11.875257 -17.048933 -1.758776
14.750754 -18.862324 -1.810958
55.221428 -60.453709 -1.625801
0.975623 -0.988338 0.189211
17.805689 -20.258631 -1.857982
21.534824 -21.903440 -1.851247
0.974074 -0.815350 0.200556
1.105169 -0.891979 0.213030
25.581161 -23.206856 -1.791065
31.671799 -25.683573 -1.869824
0.815844 -1.085482 0.291486
0.868729 -1.107111 0.309900
18.636049 -26.791571 0.682015
0.858587 -1.139722 0.237483
0.940354 -0.991915 0.316699
1.015678 -1.029023 0.336462
0.930538 -1.023823 0.248070
0.992651 -1.047860 0.263205
2.984581 -4.124524 -1.920259
3.297065 -4.086664 -1.958699
7.814292 -7.008413 -1.944952
8.539218 -6.892883 -1.937865
3.968392 -4.285207 -2.143060
4.121596 -3.999470 -2.039019
3.055982 -3.448111 -1.926347
3.312065 -3.359439 -1.932645
4.222108 -3.583328 -1.904696
4.609457 -3.524069 -1.935185
3.614001 -3.196318 -1.930676
3.890486 -3.089313 -1.923996
4.343767 -5.968624 -2.003738
4.719279 -5.828433 -1.965641
3.389741 -4.900477 -1.905866
3.892596 -5.029412 -2.015944
5.115586 -5.539850 -1.925580
5.516333 -5.371646 -1.891899
4.527483 -5.123678 -2.124713
4.914321 -4.984353 -2.108610
6.075132 -5.211673 -1.888929
6.652063 -5.132582 -1.902231
5.455229 -4.869391 -2.137959
5.817008 -4.667778 -2.105730
6.529553 -8.974223 -1.862468
7.364098 -9.037664 -1.855063
5.103250 -7.325237 -1.937006
5.643006 -7.247610 -1.924891
8.216438 -8.919495 -1.849482
9.454469 -9.260139 -1.891873
6.396480 -7.245366 -1.960936
7.029865 -7.145722 -1.948072
8.248360 -11.414412 -1.831983
9.263878 -11.440676 -1.832322
1.086391 -0.957072 0.273862
1.095928 -0.925804 0.285007
10.700395 -11.724747 -1.873604
12.413726 -12.220197 -1.900266
7.493330 -8.549467 -1.883152
8.275537 -8.482174 -1.871673
14.293461 -12.499188 -1.920981
16.504055 -12.923857 -1.972575
9.455032 -8.589009 -1.908017
10.423368 -8.518225 -1.905269
24.852522 -34.421917 -1.531057
30.144398 -37.131695 -1.282787
11.860086 -17.141876 -1.765205
14.720811 -18.946306 -1.815002
54.919731 -60.503975 -1.622083
0.972513 -0.991398 0.189211
17.544100 -20.087481 -1.834864
21.491030 -21.996655 -1.853660
0.971508 -0.818406 0.200556
1.102361 -0.895446 0.213030
26.250803 -23.966141 -1.849398
31.527475 -25.731205 -1.865646
6.680736 -9.269330 0.953008
0.865246 -1.109835 0.309900
18.582447 -26.894432 0.682803
0.855002 -1.142414 0.237483
0.937233 -0.994864 0.316699
1.012440 -1.032209 0.336462
0.927317 -1.026742 0.248070
0.989355 -1.050973 0.263205
2.969465 -4.130865 -1.918738
3.290042 -4.104203 -1.962459
7.787878 -7.028974 -1.943777
8.558775 -6.953029 -1.947951
3.948645 -4.290784 -2.139377
4.475238 -4.366790 -2.234982
3.037967 -3.449463 -1.921360
3.302780 -3.371124 -1.933462
4.223597 -3.607583 -1.911005
4.590886 -3.532832 -1.931780
3.605304 -3.208882 -1.931477
3.892323 -3.110661 -1.930221
4.323876 -5.980681 -2.003176
4.714271 -5.859677 -1.971634
3.386023 -4.928281 -1.913088
4.078508 -5.301754 -2.128799
5.133217 -5.594367 -1.939956
5.506355 -5.395689 -1.894469
4.501396 -5.126436 -2.119635
4.901310 -5.002474 -2.109845
6.052877 -5.225648 -1.886950
6.620526 -5.141586 -1.897477
5.414438 -4.863465 -2.127161
5.811273 -4.693213 -2.109218
6.464557 -8.943567 -1.851061
7.313281 -9.033228 -1.848970
5.068074 -7.323583 -1.931992
5.578281 -7.211416 -1.909454
8.199013 -8.956931 -1.852080
9.416867 -9.281487 -1.890047
6.360840 -7.250701 -1.956666
7.019731 -7.180337 -1.951760
8.202099 -11.425777 -1.829388
9.236600 -11.480511 -1.834254
1.083379 -0.960481 0.273862
1.093014 -0.929242 0.285007
10.630267 -11.721531 -1.867072
12.347022 -12.231234 -1.895440
7.420062 -8.519476 -1.870032
8.248848 -8.508132 -1.871673
14.191534 -12.488801 -1.911586
16.485264 -12.992853 -1.975482
9.423642 -8.614669 -1.907030
10.396555 -8.550929 -1.905269
0.775023 -1.037330 0.156616
29.820372 -36.969601 -1.272500
11.789289 -17.154415 -1.762368
14.666093 -18.998764 -1.815675
54.658421 -60.597496 -1.619710
0.969394 -0.994449 0.189211
17.644102 -20.330915 -1.854002
21.371733 -22.012564 -1.848835
0.968932 -0.821454 0.200556
1.099542 -0.898905 0.213030
26.112202 -23.990364 -1.844422
31.420225 -25.808586 -1.863913
6.674743 -9.322778 0.955630
0.861755 -1.112548 0.309900
18.569071 -27.056610 0.684642
0.851409 -1.145094 0.237483
0.934103 -0.997804 0.316699
1.009192 -1.035384 0.336462
0.924087 -1.029650 0.248070
0.986048 -1.054076 0.263205
2.969280 -4.158304 -1.927863
3.270162 -4.105855 -1.957947
7.793280 -7.078530 -1.951213
8.527746 -6.972443 -1.945710
3.906426 -4.271481 -2.122434
4.482895 -4.401665 -2.246466
3.025925 -3.457614 -1.920529
3.290892 -3.380183 -1.932645
4.205169 -3.614697 -1.907500
4.570814 -3.540369 -1.927693
3.597922 -3.222653 -1.933077
3.875323 -3.117138 -1.926331
4.310636 -6.002050 -2.005987
4.691011 -5.868463 -1.969455
3.380046 -4.952980 -1.918997
4.072224 -5.328029 -2.134637
5.142790 -5.640474 -1.951137
5.487997 -5.411610 -1.893955
4.485268 -5.140553 -2.119635
4.874913 -5.006983 -2.104907
6.037890 -5.245915 -1.887445
6.601271 -5.159977 -1.896526
5.376559 -4.859900 -2.117563
5.799479 -4.713850 -2.110381
6.467318 -9.007067 -1.860686
7.253893 -9.017832 -1.840508
5.037352 -7.328212 -1.928801
5.603322 -7.290640 -1.927097
8.165534 -8.976795 -1.850781
9.372193 -9.295743 -1.886699
6.338029 -7.270650 -1.956666
6.991667 -7.196754 -1.950121
8.153555 -11.433743 -1.826217
9.215363 -11.528013 -1.837566
1.080356 -0.963879 0.273862
1.090090 -0.932671 0.285007
10.614592 -11.778473 -1.871253
12.362047 -12.323148 -1.904610
7.442033 -8.599361 -1.883881
8.204273 -8.515606 -1.867148
14.183436 -12.561037 -1.916283
16.400688 -13.010020 -1.969669
9.397982 -8.645571 -1.907359
10.371164 -8.584805 -1.905581
0.771760 -1.039760 0.156616
29.512678 -36.824543 -1.262961
11.638979 -17.049828 -1.746107
14.590548 -19.024206 -1.813485
54.633209 -60.953587 -1.625263
0.966265 -0.997489 0.189211
17.515104 -20.310675 -1.846347
21.310795 -22.088205 -1.849639
0.966347 -0.824494 0.200556
1.096713 -0.902355 0.213030
26.020586 -24.057354 -1.843148
31.355934 -25.921158 -1.865034
0.805578 -1.093123 0.291486
0.858256 -1.115249 0.309900
18.318588 -26.871784 0.680351
0.847807 -1.147763 0.237483
0.930964 -1.000734 0.316699
1.005935 -1.038550 0.336462
0.920847 -1.032548 0.248070
0.982732 -1.057168 0.263205
2.939201 -4.143384 -1.915696
3.256089 -4.114661 -1.957195
7.765226 -7.097672 -1.949648
8.521000 -7.011647 -1.949445
3.871834 -4.260243 -2.109911
4.459712 -4.406581 -2.241442
3.017420 -3.469862 -1.922191
3.275150 -3.385284 -1.929379
4.198025 -3.631586 -1.909603
4.564133 -3.558159 -1.929736
3.586425 -3.232706 -1.932277
3.861197 -3.125842 -1.923996
4.296195 -6.021827 -2.008236
4.674956 -5.886177 -1.970545
3.350778 -4.943185 -1.910462
4.047415 -5.330279 -2.130097
5.130204 -5.662335 -1.953267
5.501252 -5.458673 -1.905264
4.475282 -5.161807 -2.122809
4.859159 -5.022274 -2.104907
6.017015 -5.261016 -1.885960
6.571254 -5.169922 -1.892248
5.383773 -4.897390 -2.127161
5.798010 -4.742905 -2.115613
6.429878 -9.014502 -1.857834
7.263784 -9.088223 -1.851001
4.988065 -7.305328 -1.917861
5.593461 -7.325225 -1.931949
8.043558 -8.898257 -1.827722
9.344347 -9.326535 -1.887004
6.297303 -7.269800 -1.950688
6.964933 -7.214468 -1.948892
8.103904 -11.439896 -1.822758
9.186509 -11.566201 -1.839222
1.077323 -0.967269 0.273862
1.087154 -0.936091 0.285007
10.563011 -11.795489 -1.868379
12.342926 -12.381579 -1.907988
7.425210 -8.634650 -1.886796
8.184306 -8.548436 -1.868888
14.135013 -12.597586 -1.914941
16.378407 -13.076349 -1.972160
9.364994 -8.669680 -1.906044
10.362387 -8.632483 -1.909325
19.064318 -26.926262 -1.143018
29.193731 -36.662292 -1.252798
11.499478 -16.959307 -1.731548
14.490792 -19.017683 -1.807925
35.647778 -40.010555 -0.992097
0.963127 -1.000520 0.189211
17.474539 -20.392878 -1.849103
21.199829 -22.111870 -1.845618
0.963752 -0.827526 0.200556
1.093873 -0.905796 0.213030
25.868923 -24.068203 -1.837130
31.239012 -25.990177 -1.862691
0.802140 -1.095649 0.291486
0.854748 -1.117940 0.309900
18.580130 -27.441151 0.689372
0.844197 -1.150421 0.237483
0.927815 -1.003653 0.316699
1.002667 -1.041705 0.336462
0.917599 -1.035436 0.248070
0.979406 -1.060250 0.263205
2.938863 -4.170808 -1.924821
3.239689 -4.120517 -1.954939
7.763054 -7.140670 -1.955126
8.483770 -7.025887 -1.945710
3.844791 -4.257145 -2.101808
4.372741 -4.348481 -2.201962
3.011230 -3.484857 -1.925516
3.265771 -3.396866 -1.930196
4.190816 -3.648466 -1.911707
4.546995 -3.567864 -1.927011
3.576252 -3.243957 -1.932277
3.839883 -3.128707 -1.917771
4.277256 -6.035295 -2.008236
4.652849 -5.896315 -1.968910
3.335232 -4.953688 -1.910462
4.034086 -5.347486 -2.132042
5.112390 -5.678425 -1.953267
5.497800 -5.489539 -1.910405
4.462741 -5.180166 -2.124713
4.840710 -5.034781 -2.103673
5.993204 -5.273469 -1.883486
6.498490 -5.146094 -1.874658
5.331892 -4.880654 -2.111564
5.802341 -4.776841 -2.123170
6.412865 -9.050741 -1.861398
7.216757 -9.087885 -1.845924
5.011887 -7.390401 -1.937462
5.559771 -7.328803 -1.927979
8.090552 -9.007330 -1.846234
9.369500 -9.410370 -1.898872
6.255374 -7.267284 -1.944283
6.946311 -7.240541 -1.950121
8.050884 -11.440988 -1.818434
9.130450 -11.570159 -1.834806
1.074279 -0.970648 0.273862
1.084208 -0.939502 0.285007
10.577215 -11.886469 -1.878568
12.326356 -12.442828 -1.911849
7.385305 -8.642955 -1.883152
8.135640 -8.551322 -1.863319
14.120489 -12.664526 -1.918744
16.310860 -13.106590 -1.968630
9.323304 -8.685580 -1.902755
10.330668 -8.661196 -1.908389
18.960115 -26.958221 -1.141626
28.873611 -36.495266 -1.242510
11.503868 -17.081297 -1.741380
14.346655 -18.951979 -1.796132
0.871803 -0.946429 0.179419
0.959979 -1.003541 0.189211
17.440084 -20.482624 -1.852624
21.025555 -22.068647 -1.835432
0.961147 -0.830550 0.200556
1.091022 -0.909228 0.213030
25.662096 -24.026440 -1.826713
31.229227 -26.148409 -1.867480
0.798694 -1.098163 0.291486
0.851232 -1.120620 0.309900
18.451471 -27.436295 0.688263
19.816206 -26.210735 0.953383
0.924658 -1.006563 0.316699
0.999389 -1.044850 0.336462
0.914342 -1.038313 0.248070
0.976070 -1.063322 0.263205
2.917322 -4.167853 -1.918738
3.222136 -4.124855 -1.951931
7.734838 -7.159679 -1.953561
8.466191 -7.056267 -1.946830
3.819042 -4.255308 -2.094442
4.405435 -4.408217 -2.227085
2.994381 -3.487365 -1.921360
3.257620 -3.409735 -1.931829
4.179333 -3.661613 -1.911707
4.526877 -3.575178 -1.922924
3.568738 -3.257663 -1.933878
3.830034 -3.140754 -1.917771
4.254978 -6.043983 -2.006550
4.634303 -5.910903 -1.968910
3.323827 -4.970441 -1.913088
3.978489 -5.308811 -2.109990
5.090683 -5.690134 -1.951669
5.501047 -5.527265 -1.918115
4.448901 -5.197052 -2.125982
4.822231 -5.047223 -2.102438
5.976608 -5.292271 -1.883486
6.511227 -5.189399 -1.883691
5.320727 -4.901273 -2.113364
5.793218 -4.799909 -2.125495
6.390045 -9.078902 -1.863181
7.208987 -9.136772 -1.851678
4.985395 -7.401256 -1.936094
5.527290 -7.333797 -1.924451
8.053039 -9.022376 -1.843961
9.339891 -9.439757 -1.898872
6.236310 -7.291364 -1.945564
6.922174 -7.260913 -1.949711
8.029603 -11.487338 -1.822181
9.097732 -11.603455 -1.835634
1.071224 -0.974019 0.273862
1.081251 -0.942904 0.285007
10.542443 -11.922614 -1.879090
12.280231 -12.474427 -1.910643
7.321305 -8.622556 -1.872583
8.091104 -8.558272 -1.858794
14.039373 -12.671481 -1.912481
16.227800 -13.124047 -1.963025
9.261497 -8.682376 -1.894861
10.307944 -8.697421 -1.909325
19.316589 -27.650326 -1.173252
28.479420 -36.230770 -1.228420
11.510921 -17.208450 -1.751780
14.360217 -19.094030 -1.806409
34.816204 -39.574425 -0.972435
0.956821 -1.006552 0.189211
17.322905 -20.474848 -1.846347
20.982208 -22.162102 -1.837978
0.958533 -0.833565 0.200556
1.088160 -0.912651 0.213030
25.538561 -24.061720 -1.822894
31.137754 -26.238674 -1.866869
0.795240 -1.100667 0.291486
0.847707 -1.123289 0.309900
18.218737 -27.274502 0.684409
19.789057 -26.346357 0.955478
0.921491 -1.009463 0.316699
0.996102 -1.047984 0.336462
0.911075 -1.041180 0.248070
0.972725 -1.066383 0.263205
2.901069 -4.172425 -1.916456
3.197726 -4.120373 -1.944411
7.718034 -7.189306 -1.955126
8.450015 -7.087866 -1.948325
3.801960 -4.263104 -2.092232
4.410058 -4.440502 -2.237135
2.979892 -3.492584 -1.918866
3.245628 -3.418635 -1.931012
4.165010 -3.672235 -1.910304
4.506760 -3.582401 -1.918837
3.553113 -3.263869 -1.930676
3.840129 -3.169085 -1.928665
4.246912 -6.073088 -2.012172
4.621650 -5.933002 -1.971634
3.296773 -4.963498 -1.905866
3.943620 -5.297074 -2.099613
5.070230 -5.703208 -1.950604
5.489110 -5.549999 -1.920172
4.432551 -5.211002 -2.125982
4.803720 -5.059597 -2.101204
5.958509 -5.309727 -1.882992
6.517680 -5.227991 -1.890821
5.299726 -4.912756 -2.110965
5.779583 -4.819306 -2.126077
6.246857 -8.934150 -1.826822
7.188785 -9.170215 -1.854048
4.928697 -7.366609 -1.921964
5.501876 -7.348009 -1.923568
8.056005 -9.083131 -1.851756
9.296302 -9.454986 -1.895829
6.227248 -7.327336 -1.950261
6.876381 -7.258525 -1.942745
7.999104 -11.520647 -1.823623
9.064893 -11.636662 -1.836462
1.068159 -0.977379 0.273862
1.078283 -0.946296 0.285007
10.550657 -12.007884 -1.888235
12.240981 -12.512946 -1.910643
7.295445 -8.647020 -1.872948
8.064178 -8.583651 -1.858794
13.995087 -12.711508 -1.911810
16.167959 -13.159919 -1.960534
9.218420 -8.696505 -1.891244
10.263979 -8.715728 -1.905893
19.209145 -27.681307 -1.171777
28.236168 -36.154705 -1.221873
11.434807 -17.211332 -1.747998
13.847417 -18.534479 -1.742554
34.406300 -39.356804 -0.962716
55.510075 -56.639481 -0.839364
17.179028 -20.434452 -1.836855
20.885111 -22.198868 -1.835298
0.955910 -0.836572 0.200556
1.085288 -0.916065 0.213030
25.396242 -24.078596 -1.817569
30.942383 -26.240839 -1.859328
6.669036 -9.631884 0.972021
0.844174 -1.125946 0.309900
18.490732 -27.871799 0.693868
19.660704 -26.347542 0.953747
0.918315 -1.012353 0.316699
0.992805 -1.051108 0.336462
0.907800 -1.044038 0.248070
0.969370 -1.069434 0.263205
2.876469 -4.164718 -1.908091
3.191599 -4.139171 -1.948923
7.691128 -7.209482 -1.953952
8.406645 -7.096684 -1.943095
3.793456 -4.280617 -2.095178
4.386868 -4.445073 -2.232110
2.972410 -3.506111 -1.921360
3.236132 -3.430136 -1.931829
4.154849 -3.686551 -1.911005
4.499904 -3.600047 -1.920881
3.549538 -3.281272 -1.934678
3.830153 -3.181134 -1.928665
4.226722 -6.084819 -2.011610
4.606536 -5.952046 -1.973269
3.271863 -4.959598 -1.899958
3.942793 -5.330670 -2.108693
5.043388 -5.708965 -1.946877
5.486600 -5.582329 -1.925826
4.422253 -5.232168 -2.129156
4.778627 -5.065012 -2.096884
5.940361 -5.327122 -1.882497
6.493648 -5.242364 -1.888445
5.281485 -4.926768 -2.109765
5.755594 -4.830089 -2.122589
6.320568 -9.101064 -1.859260
7.066409 -9.073219 -1.827983
4.932354 -7.422682 -1.933359
5.481102 -7.368381 -1.924451
8.030033 -9.111362 -1.852405
9.274858 -9.492610 -1.897654
6.206711 -7.349856 -1.951115
6.819905 -7.244547 -1.932500
7.931493 -11.500043 -1.815551
8.971179 -11.591558 -1.823491
1.065083 -0.980730 0.273862
1.075305 -0.949679 0.285007
10.549328 -12.082854 -1.895550
12.219627 -12.569820 -1.913780
7.258164 -8.657818 -1.870032
8.045255 -8.617562 -1.860883
13.922850 -12.725870 -1.906889
16.124994 -13.209387 -1.960326
9.208188 -8.741756 -1.895190
10.232032 -8.744089 -1.904957
17.729824 -25.718344 -1.071081
27.977734 -36.056953 -1.214516
11.383962 -17.252163 -1.748565
14.218552 -19.155102 -1.803376
34.028244 -39.171734 -0.954028
55.423988 -56.908119 -0.841106
17.081545 -20.448498 -1.832874
20.491985 -21.919178 -1.803532
0.953277 -0.839571 0.200556
1.082404 -0.919470 0.213030
25.148684 -23.994114 -1.803796
30.806583 -26.292570 -1.855761
6.657908 -9.680784 0.974250
0.840632 -1.128593 0.309900
17.219461 -26.130371 0.662424
20.484961 -27.630814 0.988403
0.915130 -1.015233 0.316699
0.989497 -1.054222 0.336462
0.904515 -1.046884 0.248070
0.966005 -1.072474 0.263205
2.860255 -4.169141 -1.905810
3.171773 -4.140384 -1.944411
7.607234 -7.175587 -1.937124
8.375306 -7.115447 -1.940853
3.760430 -4.270097 -2.083392
4.376820 -4.462815 -2.234263
2.959053 -3.512636 -1.919698
3.225340 -3.440285 -1.931829
4.144639 -3.700840 -1.911707
4.503271 -3.625893 -1.927693
3.533870 -3.287385 -1.931477
3.827239 -3.199022 -1.932555
4.216261 -6.110737 -2.016108
4.598419 -5.980182 -1.978172
3.235697 -4.938158 -1.886827
3.926026 -5.343030 -2.108693
5.025428 -5.724781 -1.946877
5.477166 -5.607808 -1.928911
4.399723 -5.238750 -2.125982
4.763998 -5.081382 -2.097501
5.920727 -5.343152 -1.881507
6.474122 -5.260297 -1.887494
5.265980 -4.943336 -2.109765
5.731593 -4.840768 -2.119101
6.303081 -9.137101 -1.862824
7.083841 -9.154510 -1.840846
4.934641 -7.477223 -1.944299
5.442797 -7.365212 -1.918717
7.989696 -9.123158 -1.849482
9.187040 -9.462251 -1.884874
6.167314 -7.349816 -1.945564
6.821251 -7.291606 -1.939876
7.916774 -11.517387 -1.816416
8.956596 -11.610332 -1.824319
1.063541 -0.982402 0.273862
1.073812 -0.951367 0.285007
10.497853 -12.061964 -1.889019
12.205403 -12.594695 -1.914745
7.260904 -8.688863 -1.874770
8.011535 -8.608607 -1.855661
13.916011 -12.759831 -1.908902
16.027306 -13.171646 -1.949946
9.190168 -8.752120 -1.894204
10.207769 -8.751169 -1.902773
17.689404 -25.746161 -1.071081
27.732586 -35.857452 -1.204914
11.378688 -17.303324 -1.752347
14.192006 -19.182215 -1.803882
33.712891 -38.931767 -0.945339
55.400017 -57.062523 -0.842347
16.994600 -20.409357 -1.826291
20.676773 -22.186182 -1.825111
0.951957 -0.841068 0.200556
1.080958 -0.921169 0.213030
25.217627 -24.135830 -1.812361
30.812307 -26.381170 -1.858920
6.624698 -9.664853 0.972152
0.838859 -1.129912 0.309900
17.456871 -26.582191 0.669840
20.417744 -27.630812 0.987493
0.913534 -1.016669 0.316699
0.987840 -1.055775 0.336462
0.902870 -1.048304 0.248070
0.964319 -1.073990 0.263205
2.846450 -4.162903 -1.900487
3.172058 -4.154164 -1.948923
7.605902 -7.196989 -1.939864
8.340144 -7.108259 -1.934877
3.691483 -4.204448 -2.045823
4.363252 -4.463037 -2.230675
2.954693 -3.518679 -1.920529
3.213662 -3.438713 -1.927746
4.136041 -3.704833 -1.910304
4.459399 -3.602412 -1.909982
3.528702 -3.292932 -1.931477
3.822209 -3.205029 -1.932555
4.208821 -6.120523 -2.017233
4.591372 -5.990444 -1.979262
3.249481 -4.976547 -1.900614
3.905267 -5.332450 -2.101559
5.020224 -5.737033 -1.948475
5.484585 -5.632969 -1.935079
4.402395 -5.258784 -2.131695
4.746881 -5.079164 -2.093181
5.910895 -5.351140 -1.881012
6.459814 -5.265570 -1.885592
5.258209 -4.951602 -2.109765
5.726912 -4.852230 -2.120264
6.229830 -9.060903 -1.843932
6.989767 -9.062791 -1.818505
4.919694 -7.480075 -1.942932
5.432383 -7.375320 -1.919158
7.981829 -9.143145 -1.851106
9.163899 -9.468163 -1.883048
6.135769 -7.335461 -1.938732
6.788367 -7.279460 -1.933319
7.853843 -11.502924 -1.809497
8.900754 -11.613293 -1.819903
1.060450 -0.985738 0.273862
1.070818 -0.954735 0.285007
10.446960 -12.079865 -1.886406
12.151982 -12.618693 -1.912332
7.262385 -8.746494 -1.883152
7.980429 -8.629405 -1.854617
13.848141 -12.777840 -1.904652
16.024208 -13.253579 -1.955136
9.142727 -8.761797 -1.889599
10.165244 -8.770318 -1.899653
18.886515 -27.677729 -1.164158
27.443060 -35.714657 -1.195874
11.327531 -17.343987 -1.752914
13.920094 -18.939499 -1.773723
33.320618 -38.723614 -0.936068
55.467716 -57.492378 -0.847046
16.776764 -20.276588 -1.807766
20.545902 -22.185198 -1.819080
0.949310 -0.844054 0.200556
1.078059 -0.924560 0.213030
24.917498 -23.998692 -1.794305
30.735336 -26.483046 -1.859328
6.499147 -9.545184 0.961006
0.835305 -1.132541 0.309900
19.145243 -29.358559 0.717255
20.369926 -27.747978 0.988995
0.910336 -1.019534 0.316699
0.984519 -1.058873 0.336462
0.899572 -1.051135 0.248070
0.960940 -1.077014 0.263205
2.842640 -4.185644 -1.907331
3.135317 -4.133222 -1.933131
7.586089 -7.223559 -1.940647
8.332717 -7.147182 -1.938612
3.689199 -4.228685 -2.052453
4.330921 -4.458054 -2.220625
2.942467 -3.526541 -1.919698
3.206593 -3.452785 -1.930196
4.129923 -3.722851 -1.913109
4.453918 -3.621121 -1.912707
3.520998 -3.306525 -1.933077
3.805051 -3.211117 -1.928665
4.203575 -6.154368 -2.024542
4.577214 -6.010947 -1.981441
3.221580 -4.967657 -1.892736
3.873947 -5.324861 -2.093127
5.002175 -5.752777 -1.948475
5.480349 -5.664017 -1.940220
4.384645 -5.271126 -2.131060
4.732201 -5.095440 -2.093798
5.885485 -5.361825 -1.878044
6.438722 -5.282155 -1.884166
5.234346 -4.960192 -2.106165
5.710179 -4.868960 -2.119682
6.143822 -8.995786 -1.825396
6.974489 -9.101885 -1.822228
4.906773 -7.511828 -1.947490
5.431158 -7.422199 -1.927538
7.956936 -9.172654 -1.852080
9.147841 -9.511127 -1.886091
6.101491 -7.341146 -1.934889
6.786815 -7.323668 -1.939876
7.789972 -11.486541 -1.802290
8.855806 -11.630181 -1.817971
1.057348 -0.989065 0.273862
1.067813 -0.958095 0.285007
10.389611 -12.090034 -1.882487
12.082033 -12.625298 -1.907023
7.241113 -8.776865 -1.884974
7.954616 -8.655881 -1.854965
13.809381 -12.822635 -1.904876
15.941170 -13.269546 -1.949530
9.143499 -8.817924 -1.896177
10.133159 -8.798334 -1.898717
18.802830 -27.741892 -1.164403
27.135283 -35.544991 -1.185836
11.253522 -17.349394 -1.749511
13.791084 -18.888252 -1.763783
0.855320 -0.961350 0.179419
0.942496 -1.019977 0.189211
16.811640 -20.449442 -1.819708
20.520739 -22.298052 -1.823503
0.946653 -0.847032 0.200556
1.075149 -0.927943 0.213030
24.852009 -24.086588 -1.795116
30.624804 -26.555939 -1.857494
6.464671 -9.558931 0.960482
0.831743 -1.135160 0.309900
18.752138 -28.953388 0.709167
18.644495 -25.569134 0.925740
0.907128 -1.022389 0.316699
0.981187 -1.061961 0.336462
0.896265 -1.053956 0.248070
0.957552 -1.080028 0.263205
2.832556 -4.199171 -1.909612
3.108843 -4.125358 -1.924107
7.563358 -7.247356 -1.940647
8.295319 -7.160521 -1.934877
3.637130 -4.195115 -2.028880
4.276526 -4.430172 -2.198373
2.930221 -3.534361 -1.918866
3.194484 -3.461507 -1.929379
4.119589 -3.737072 -1.913810
4.435216 -3.629175 -1.909301
3.515895 -3.322634 -1.936279
3.806228 -3.232538 -1.934890
4.175642 -6.154808 -2.020044
4.553642 -6.019174 -1.979262
3.200878 -4.969789 -1.889453
3.633235 -5.029680 -1.962760
4.989100 -5.774314 -1.950604
5.463871 -5.682595 -1.940734
4.371673 -5.289275 -2.132964
4.723942 -5.118641 -2.097501
5.858643 -5.371089 -1.874580
6.426601 -5.306054 -1.885592
5.224241 -4.981899 -2.108565
5.699224 -4.890599 -2.121426
6.127640 -9.032986 -1.829317
6.999751 -9.194207 -1.837461
4.872599 -7.510839 -1.942932
5.403208 -7.432926 -1.925774
7.913943 -9.181134 -1.848508
9.111072 -9.532686 -1.884569
6.083359 -7.366318 -1.936597
6.765103 -7.346390 -1.940286
7.759360 -11.519174 -1.803731
8.813236 -11.650057 -1.816591
1.054235 -0.992382 0.273862
1.064798 -0.961445 0.285007
10.336157 -12.104497 -1.879352
12.020386 -12.640205 -1.903162
7.202314 -8.785858 -1.881694
7.943358 -8.698244 -1.859142
13.800938 -12.895852 -1.909796
15.923828 -13.339971 -1.952852
9.081843 -8.813562 -1.888284
10.095037 -8.821046 -1.896533
17.374634 -25.805586 -1.065837
18.582695 -24.514442 -0.750518
11.215106 -17.409792 -1.752347
13.778554 -18.995960 -1.770522
32.594048 -38.363583 -0.919362
55.654598 -58.415836 -0.857553
16.452471 -20.140484 -1.783883
20.464066 -22.377123 -1.824843
0.943988 -0.850002 0.200556
1.072229 -0.931316 0.213030
24.533400 -23.927366 -1.775440
30.443350 -26.566713 -1.850870
6.329247 -9.421576 0.948025
0.828172 -1.137767 0.309900
18.415800 -28.630182 0.702540
18.621618 -25.706877 0.927971
0.903912 -1.025234 0.316699
0.977846 -1.065038 0.336462
0.892950 -1.056767 0.248070
0.954154 -1.083031 0.263205
2.814242 -4.200338 -1.905810
3.100340 -4.141016 -1.927115
7.546186 -7.276541 -1.942212
8.269810 -7.183976 -1.934130
3.613070 -4.193791 -2.022250
4.263886 -4.444927 -2.199091
2.913359 -3.536495 -1.914711
3.186077 -3.474202 -1.931012
4.107828 -3.749995 -1.913810
4.423793 -3.643091 -1.909301
3.498832 -3.327312 -1.932277
3.798868 -3.246859 -1.936446
4.156286 -6.167895 -2.020044
4.537034 -6.036519 -1.980352
3.168063 -4.952690 -1.878292
3.735018 -5.203512 -2.031511
4.962178 -5.779691 -1.946877
5.425894 -5.678836 -1.933023
4.350242 -5.297101 -2.130425
4.722040 -5.148827 -2.104290
5.848840 -5.396061 -1.877054
6.402411 -5.320033 -1.883215
5.194847 -4.985027 -2.102566
5.657685 -4.886057 -2.110962
6.099232 -9.052192 -1.829317
7.019728 -9.280497 -1.851340
4.848979 -7.526110 -1.942932
5.383269 -7.454600 -1.927097
7.856887 -9.172916 -1.841363
9.057890 -9.536942 -1.879396
6.091069 -7.423239 -1.947272
6.723437 -7.347438 -1.934549
7.704477 -11.515495 -1.798831
8.783750 -11.687175 -1.818247
1.051112 -0.995689 0.273862
1.061773 -0.964785 0.285007
10.103458 -11.906775 -1.839640
11.980616 -12.677906 -1.903162
7.164769 -8.796222 -1.878779
7.900072 -8.705690 -1.854965
13.747341 -12.926875 -1.907784
15.878793 -13.387368 -1.952437
9.025939 -8.814426 -1.881706
10.052413 -8.839700 -1.893414
0.740390 -1.062327 0.156616
26.570696 -35.263165 -1.168191
11.169992 -17.460047 -1.754049
13.702473 -19.016535 -1.768164
32.227158 -38.173843 -0.910807
55.395161 -58.510548 -0.856101
16.720478 -20.601156 -1.824301
20.389631 -22.436876 -1.824441
0.941313 -0.852964 0.200556
1.069298 -0.934680 0.213030
24.431055 -23.977732 -1.773241
30.295170 -26.605595 -1.846488
6.182607 -9.265175 0.934126
0.824594 -1.140364 0.309900
18.423611 -28.841331 0.705196
18.527903 -25.747412 0.927470
0.900687 -1.028069 0.316699
0.974495 -1.068105 0.336462
0.889625 -1.059567 0.248070
0.950747 -1.086023 0.263205
2.811200 -4.224611 -1.913414
3.099564 -4.167032 -1.935387
7.509246 -7.286520 -1.938298
8.229412 -7.194446 -1.929647
3.550572 -4.146977 -1.992048
4.227907 -4.435423 -2.186888
2.904523 -3.548460 -1.916373
3.173909 -3.482852 -1.930196
4.101520 -3.767977 -1.916614
4.405060 -3.651004 -1.905895
3.490997 -3.340837 -1.933878
3.787246 -3.257583 -1.935668
4.141136 -6.187316 -2.022293
4.518046 -6.050743 -1.980352
3.150476 -4.959420 -1.876979
3.745162 -5.252082 -2.047077
4.875456 -5.714353 -1.917593
5.420046 -5.708429 -1.937650
4.337159 -5.315164 -2.132329
4.698121 -5.155228 -2.100587
5.831859 -5.414410 -1.877054
6.379688 -5.335155 -1.881314
5.172321 -4.994671 -2.099567
5.626370 -4.890054 -2.104568
6.080580 -9.086052 -1.832525
6.983412 -9.293066 -1.849308
4.827400 -7.544593 -1.943843
5.350690 -7.458820 -1.923568
7.839514 -9.211105 -1.844286
9.023805 -9.561048 -1.878483
6.057875 -7.430197 -1.943856
6.737302 -7.408980 -1.946023
7.666078 -11.536343 -1.798254
8.746991 -11.714712 -1.818247
1.047979 -0.998986 0.273862
1.058736 -0.968116 0.285007
10.231834 -12.135804 -1.873604
11.910782 -12.683686 -1.897854
7.150670 -8.835531 -1.882787
7.879295 -8.737763 -1.856705
13.736939 -12.998728 -1.912481
15.798698 -13.405062 -1.947246
9.012245 -8.856595 -1.884995
10.029039 -8.875156 -1.894350
21.730654 -32.729565 -1.401110
26.270355 -35.093727 -1.158340
11.084184 -17.446280 -1.748565
13.556692 -18.939665 -1.755696
31.886185 -38.011303 -0.903104
55.531837 -59.025017 -0.862279
16.596909 -20.580566 -1.817105
20.237389 -22.410551 -1.816265
0.938628 -0.855917 0.200556
1.066356 -0.938034 0.213030
24.473427 -24.170908 -1.782847
30.206942 -26.696672 -1.846182
0.769087 -1.119097 0.291486
0.821007 -1.142949 0.309900
18.321144 -28.880484 0.704875
17.862543 -24.989410 0.904609
0.897452 -1.030893 0.316699
0.971135 -1.071161 0.336462
0.886292 -1.062356 0.248070
0.947331 -1.089005 0.263205
2.789819 -4.221035 -1.907331
3.105308 -4.201992 -1.948171
7.486319 -7.310074 -1.938298
8.217116 -7.229323 -1.932262
3.551903 -4.175174 -2.000887
4.207505 -4.441935 -2.183299
2.885382 -3.547642 -1.910555
3.162952 -3.492806 -1.930196
4.084185 -3.775732 -1.913810
4.384871 -3.657637 -1.901808
3.477858 -3.349231 -1.932277
3.774194 -3.267068 -1.934112
4.131191 -6.214715 -2.027354
4.499015 -6.064907 -1.980352
3.150894 -4.994929 -1.887483
3.662657 -5.171458 -2.008161
4.927008 -5.812230 -1.947410
5.394100 -5.717021 -1.934565
4.320440 -5.328763 -2.132329
4.685749 -5.174179 -2.102438
5.813408 -5.431376 -1.876559
6.358426 -5.351431 -1.879888
5.127971 -4.982869 -2.086970
5.648545 -4.940331 -2.119682
6.054176 -9.108393 -1.833238
6.939990 -9.296037 -1.845246
4.784961 -7.530082 -1.935638
5.337461 -7.489861 -1.927538
7.828333 -9.256822 -1.848833
9.019470 -9.616693 -1.884265
6.043082 -7.459842 -1.946845
6.749530 -7.469233 -1.957088
7.618926 -11.543829 -1.795371
8.744452 -11.788210 -1.826251
1.044836 -1.002273 0.273862
1.055690 -0.971437 0.285007
10.184762 -12.157234 -1.871775
11.862735 -12.712344 -1.896405
7.117962 -8.851811 -1.881330
7.861028 -8.772720 -1.859142
13.693161 -13.039073 -1.912033
15.803452 -13.494613 -1.953683
8.984377 -8.884864 -1.884995
9.995197 -8.901375 -1.893102
18.032925 -27.338425 -1.133105
26.005966 -34.969250 -1.150297
11.010234 -17.450678 -1.745162
13.485559 -18.965933 -1.754011
31.536322 -37.834705 -0.895042
55.574291 -59.443062 -0.866687
16.623087 -20.746298 -1.828281
20.197563 -22.508148 -1.819348
0.935935 -0.858861 0.200556
1.063404 -0.941380 0.213030
24.422844 -24.273024 -1.784930
30.081110 -26.754295 -1.843329
0.765568 -1.121508 0.291486
0.817413 -1.145522 0.309900
18.276104 -29.010689 0.706131
0.805796 -1.177637 0.237483
0.894209 -1.033707 0.316699
0.967765 -1.074207 0.336462
0.882950 -1.065135 0.248070
0.943905 -1.091975 0.263205
2.779566 -4.234433 -1.909612
3.090987 -4.210239 -1.947419
7.454943 -7.325288 -1.935951
8.179623 -7.242112 -1.928526
3.530414 -4.176332 -1.995731
4.160113 -4.419931 -2.164636
2.881035 -3.565217 -1.915542
3.145820 -3.495973 -1.926112
4.083226 -3.798801 -1.919419
4.371913 -3.670192 -1.901127
3.469937 -3.362705 -1.933878
3.758330 -3.274097 -1.930999
4.113750 -6.230874 -2.028478
4.471910 -6.068194 -1.976538
3.135187 -5.004803 -1.887483
3.610258 -5.132024 -1.986758
4.867906 -5.778883 -1.929839
5.381419 -5.739561 -1.936622
4.308415 -5.348236 -2.134868
4.668192 -5.187464 -2.101821
5.786464 -5.440289 -1.873096
6.344555 -5.373882 -1.880838
5.124526 -5.011004 -2.092369
5.510524 -4.851005 -2.070269
6.023371 -9.124078 -1.832525
6.891907 -9.292503 -1.839831
4.741627 -7.513728 -1.926978
5.304852 -7.493880 -1.924009
7.811877 -9.296506 -1.852080
8.952750 -9.606009 -1.876049
6.013512 -7.471163 -1.944710
6.731278 -7.496212 -1.958727
7.611833 -11.612454 -1.803155
8.708551 -11.817216 -1.826526
1.041682 -1.005551 0.273862
1.052633 -0.974749 0.285007
10.035105 -12.054878 -1.848784
11.830853 -12.758273 -1.897854
7.098685 -8.884904 -1.883881
7.832116 -8.795906 -1.858794
13.643528 -13.073765 -1.910691
15.720201 -13.509240 -1.948077
8.973166 -8.929778 -1.888941
9.977499 -8.941941 -1.895286
17.403358 -26.563745 -1.092383
18.028276 -24.414953 -0.737674
10.981732 -17.527397 -1.749889
13.480031 -19.084650 -1.761930
31.178951 -37.645493 -0.886667
55.652786 -59.902977 -0.871835
16.504488 -20.731281 -1.821698
19.984514 -22.412249 -1.805007
0.933232 -0.861797 0.200556
1.060441 -0.944716 0.213030
24.339413 -24.342566 -1.784352
29.971592 -26.826035 -1.841597
0.762041 -1.123907 0.291486
0.813810 -1.148085 0.309900
17.791862 -28.438686 0.695299
18.166725 -25.754326 0.922825
0.890957 -1.036512 0.316699
0.964386 -1.077242 0.336462
0.879600 -1.067904 0.248070
0.940470 -1.094935 0.263205
2.705112 -4.148305 -1.863225
3.060153 -4.196059 -1.935387
7.436067 -7.352820 -1.937124
8.142129 -7.254737 -1.924790
3.513709 -4.183115 -1.993521
4.159017 -4.446557 -2.171814
2.863035 -3.565701 -1.910555
3.140944 -3.512610 -1.930196
4.086247 -3.825763 -1.927131
4.376222 -3.697185 -1.908620
3.463271 -3.377450 -1.936279
3.756376 -3.293132 -1.935668
4.088920 -6.235723 -2.025666
4.457394 -6.088408 -1.978717
3.101613 -4.985675 -1.875666
3.539613 -5.066026 -1.954328
4.891623 -5.844555 -1.947942
5.372617 -5.766307 -1.940220
4.280975 -5.348378 -2.129156
4.648052 -5.197864 -2.099970
5.763731 -5.453095 -1.871117
6.336535 -5.401321 -1.883691
5.096561 -5.014990 -2.086970
5.561354 -4.926432 -2.097010
5.971024 -9.106693 -1.824683
6.838051 -9.280840 -1.832722
4.748877 -7.578182 -1.940652
5.281283 -7.510509 -1.924009
7.781370 -9.319482 -1.851756
8.926565 -9.638432 -1.876962
5.988794 -7.488488 -1.944283
6.698545 -7.507121 -1.955858
7.571009 -11.629668 -1.802001
8.688978 -11.868462 -1.830666
1.038517 -1.008818 0.273862
1.049565 -0.978051 0.285007
10.080427 -12.187325 -1.866027
11.774543 -12.777883 -1.894958
7.056108 -8.888644 -1.879508
7.814910 -8.832245 -1.861578
13.598104 -13.112419 -1.910020
15.667139 -13.549464 -1.946624
8.967323 -8.980306 -1.894204
9.955235 -8.978525 -1.896533
17.317642 -26.614937 -1.092220
18.274658 -24.911226 -0.754695
10.951806 -17.602413 -1.754427
13.355808 -19.035620 -1.752495
30.854832 -37.493038 -0.879411
55.857853 -60.503513 -0.879491
16.350311 -20.670334 -1.810675
19.895456 -22.454027 -1.803130
0.930520 -0.864725 0.200556
1.057468 -0.948043 0.213030
24.198130 -24.353708 -1.779028
29.804007 -26.845257 -1.835890
0.758506 -1.126296 0.291486
0.810199 -1.150635 0.309900
17.638138 -28.390772 0.693518
17.308029 -24.703321 0.891994
0.887697 -1.039305 0.316699
0.960997 -1.080266 0.336462
0.876241 -1.070662 0.248070
0.937025 -1.097884 0.263205
2.717000 -4.195731 -1.882236
3.044766 -4.202661 -1.933883
7.396288 -7.359502 -1.932428
8.150083 -7.307753 -1.932635
3.478041 -4.166902 -1.979525
4.130983 -4.444621 -2.163918
2.847313 -3.568964 -1.907230
3.131113 -3.523819 -1.931012
4.627997 -4.365220 -2.213181
4.351643 -3.700012 -1.902489
3.444836 -3.380569 -1.931477
3.741848 -3.301282 -1.933334
4.060976 -6.235642 -2.021168
4.433695 -6.096172 -1.976538
3.078049 -4.982502 -1.870413
3.516083 -5.066273 -1.949788
4.851141 -5.833138 -1.938359
5.351839 -5.780329 -1.939192
4.266501 -5.364779 -2.130425
4.635507 -5.216693 -2.101821
5.743773 -5.468494 -1.870127
6.303272 -5.407339 -1.878462
5.078080 -5.028283 -2.085770
5.568776 -4.964174 -2.106312
5.948803 -9.135315 -1.826822
6.848566 -9.356267 -1.844231
4.738358 -7.614595 -1.946578
5.282338 -7.562179 -1.933713
7.760852 -9.354534 -1.854029
8.884166 -9.653359 -1.874223
5.959182 -7.499601 -1.942148
6.664508 -7.516438 -1.952580
7.524792 -11.638420 -1.799407
8.658658 -11.905300 -1.832322
1.035343 -1.012076 0.273862
1.046487 -0.981344 0.285007
9.954139 -12.111558 -1.847739
11.711511 -12.789952 -1.890856
6.986863 -8.858177 -1.867117
7.776696 -8.844943 -1.858794
13.529780 -13.128740 -1.905770
15.613981 -13.589490 -1.945170
8.941841 -9.011240 -1.894861
9.944567 -9.025653 -1.900277
17.831877 -27.596167 -1.137447
17.895735 -24.556808 -0.738796
10.905851 -17.651991 -1.756128
13.273115 -19.044811 -1.749125
30.531986 -37.338921 -0.872155
56.034008 -61.077938 -0.886645
16.330832 -20.779657 -1.816340
19.861780 -22.558327 -1.806883
0.927799 -0.867644 0.200556
1.054485 -0.951360 0.213030
24.058426 -24.365627 -1.773819
29.712122 -26.932055 -1.835381
0.754964 -1.128673 0.291486
0.806580 -1.153175 0.309900
0.779888 -1.216791 0.226642
0.794662 -1.185179 0.237483
0.884427 -1.042089 0.316699
0.957598 -1.083280 0.336462
0.872873 -1.073410 0.248070
0.933572 -1.100823 0.263205
2.727625 -4.241710 -1.900487
3.034819 -4.216702 -1.936139
7.389722 -7.399397 -1.937124
8.105159 -7.313631 -1.927032
3.449592 -4.159129 -1.969948
4.109365 -4.449380 -2.159611
2.845062 -3.589348 -1.913880
3.121243 -3.535000 -1.931829
4.665685 -4.428948 -2.239823
4.339997 -3.713665 -1.902489
3.436794 -3.393964 -1.933077
3.750836 -3.330045 -1.944228
4.053807 -6.267753 -2.027916
4.423581 -6.122519 -1.980897
3.060420 -4.988918 -1.869100
3.493668 -5.067976 -1.945897
4.852359 -5.872194 -1.946877
5.358607 -5.824057 -1.948959
4.260159 -5.391589 -2.136137
4.619095 -5.231229 -2.101821
5.715407 -5.475750 -1.866168
6.284779 -5.425849 -1.877986
5.051486 -5.033399 -2.080971
5.541722 -4.971461 -2.101661
5.946694 -9.195336 -1.835733
6.815651 -9.372961 -1.843215
4.713394 -7.627785 -1.946123
5.236222 -7.546744 -1.924891
7.720158 -9.365141 -1.851106
8.859145 -9.687048 -1.875440
5.936799 -7.519822 -1.942575
6.629180 -7.524149 -1.948892
7.467935 -11.630323 -1.793930
8.574698 -11.868299 -1.821283
1.032158 -1.015324 0.273862
1.043399 -0.984627 0.285007
9.924801 -12.153534 -1.849568
11.640489 -12.792952 -1.885306
6.921507 -8.832012 -1.855819
7.735880 -8.854528 -1.855313
13.508349 -13.190647 -1.908902
15.557732 -13.626698 -1.943302
8.889990 -9.015358 -1.889270
9.936619 -9.075462 -1.904645
17.214752 -26.824184 -1.097136
18.388887 -25.399374 -0.769098
10.874241 -17.725227 -1.760477
13.226853 -19.106062 -1.751147
30.212929 -37.186245 -0.864989
55.499516 -60.878395 -0.879940
16.296112 -20.870182 -1.820167
19.750040 -22.574091 -1.802728
0.925069 -0.870554 0.200556
1.051491 -0.954668 0.213030
23.878359 -24.335546 -1.765254
29.701195 -27.092520 -1.840476
0.751415 -1.131039 0.291486
6.588514 -9.163073 1.070037
18.217880 -29.741346 0.714744
17.983532 -26.011515 0.925239
0.881149 -1.044863 0.316699
0.954190 -1.086283 0.336462
0.869496 -1.076146 0.248070
0.930109 -1.103750 0.263205
2.645157 -4.140770 -1.847256
3.017215 -4.220207 -1.933131
7.374708 -7.430949 -1.939473
8.098176 -7.353548 -1.931141
3.430631 -4.162743 -1.966265
4.071272 -4.436241 -2.145973
2.828185 -3.591090 -1.909724
3.106488 -3.540691 -1.929379
4.661192 -4.452680 -2.244731
4.319726 -3.719958 -1.898402
3.426114 -3.404744 -1.933077
3.732074 -3.334490 -1.939559
4.044413 -6.296641 -2.033538
4.414472 -6.150421 -1.985801
3.046683 -5.001743 -1.870413
3.488484 -5.094491 -1.952383
4.827796 -5.879939 -1.944215
5.345520 -5.846551 -1.951015
4.208234 -5.360059 -2.117096
4.597598 -5.240014 -2.099353
5.692614 -5.488281 -1.864190
6.264762 -5.443027 -1.877035
5.032964 -5.046532 -2.079772
5.514677 -4.978627 -2.097010
5.911420 -9.204022 -1.833594
6.779224 -9.384756 -1.841185
4.689407 -7.642556 -1.946123
5.216934 -7.569569 -1.926656
7.684462 -9.381701 -1.849482
8.812680 -9.697309 -1.871789
5.915549 -7.541518 -1.943429
6.609391 -7.549346 -1.950121
7.414383 -11.626995 -1.789317
8.561684 -11.928931 -1.827079
1.028964 -1.018561 0.273862
1.040301 -0.987900 0.285007
9.915247 -12.220116 -1.855577
11.626915 -12.858871 -1.890132
6.876863 -8.831952 -1.850717
7.660131 -8.823865 -1.842435
13.434280 -13.200936 -1.903757
15.553683 -13.709656 -1.948700
8.843710 -9.024888 -1.884995
9.912429 -9.110637 -1.905581
17.590557 -27.601442 -1.132285
17.681490 -24.586048 -0.735617
10.791625 -17.715059 -1.755561
13.193905 -19.186899 -1.755190
29.880075 -37.013268 -0.857286
55.281116 -61.022823 -0.879412
16.202387 -20.885008 -1.816646
19.644947 -22.596899 -1.799243
0.922329 -0.873456 0.200556
1.048486 -0.957967 0.213030
23.989819 -24.603579 -1.780879
29.498146 -27.077715 -1.832324
0.747858 -1.133394 0.291486
6.650392 -9.310086 1.082005
17.968668 -29.542036 0.710364
17.890388 -26.051411 0.924783
0.877862 -1.047626 0.316699
0.950773 -1.089275 0.336462
0.866111 -1.078873 0.248070
0.926636 -1.106667 0.263205
2.679301 -4.224285 -1.883757
3.005022 -4.231170 -1.933883
7.362316 -7.465281 -1.942603
8.066313 -7.371022 -1.928900
3.416365 -4.172056 -1.965528
4.045941 -4.436645 -2.139513
2.819115 -3.602836 -1.911386
3.092934 -3.547694 -1.927746
4.631040 -4.451659 -2.236318
4.290898 -3.718810 -1.890228
3.417979 -3.418097 -1.934678
3.725709 -3.349873 -1.941893
4.027691 -6.314182 -2.035225
4.394004 -6.162696 -1.985255
3.024160 -4.999944 -1.865818
3.456403 -5.082028 -1.942653
4.820221 -5.908558 -1.949007
5.342779 -5.880432 -1.957184
4.177444 -5.355254 -2.109480
4.579858 -5.253003 -2.098735
5.680889 -5.511552 -1.866168
6.253496 -5.467779 -1.878937
5.015747 -5.060959 -2.079172
5.499008 -4.995928 -2.097010
5.874040 -9.209255 -1.830743
6.755470 -9.414001 -1.842877
4.663357 -7.653917 -1.945211
5.182062 -7.569855 -1.922245
7.676071 -9.431862 -1.855003
8.824659 -9.771808 -1.881526
5.875071 -7.538444 -1.937451
6.601104 -7.587756 -1.955039
7.390820 -11.630265 -1.787876
8.532537 -11.927883 -1.824594
1.027362 -1.020176 0.273862
1.038748 -0.989533 0.285007
9.861197 -12.192451 -1.848261
11.602710 -12.872700 -1.889408
6.906257 -8.898770 -1.863837
7.681147 -8.876019 -1.851833
13.399396 -13.208052 -1.901520
15.511245 -13.715651 -1.945793
8.844654 -9.054323 -1.888612
9.906837 -9.134213 -1.907453
17.791140 -28.013838 -1.150966
0.787219 -1.140847 0.165694
10.717392 -17.655342 -1.747053
13.184065 -19.237171 -1.758223
19.210499 -23.858427 -0.477888
55.063194 -60.974564 -0.877009
16.189054 -20.935690 -1.819095
19.303314 -22.275118 -1.767880
0.920956 -0.874904 0.200556
1.046980 -0.959613 0.213030
23.862143 -24.549530 -1.773472
29.282095 -26.964474 -1.820299
0.746076 -1.134568 0.291486
6.658963 -9.352956 1.085074
0.770308 -1.222879 0.226642
18.123070 -26.478561 0.935804
0.876216 -1.049003 0.316699
0.949061 -1.090767 0.336462
0.864415 -1.080232 0.248070
0.924897 -1.108121 0.263205
2.705988 -4.281826 -1.909612
2.998373 -4.235886 -1.933883
7.334123 -7.460011 -1.937907
8.034404 -7.365144 -1.923670
3.409808 -4.177417 -1.965528
3.993547 -4.393464 -2.113671
2.811231 -3.604378 -1.909724
3.087357 -3.552548 -1.927746
4.640158 -4.474596 -2.244731
4.312121 -3.748864 -1.903170
3.410032 -3.420851 -1.933077
3.716319 -3.352040 -1.939559
4.026984 -6.335111 -2.040285
4.382079 -6.166461 -1.984166
3.014367 -5.001444 -1.864505
3.439871 -5.074958 -1.937465
4.806090 -5.910122 -1.946877
5.316607 -5.870249 -1.950501
4.223475 -5.432390 -2.139311
4.575361 -5.264484 -2.100587
5.669456 -5.517757 -1.865179
6.234649 -5.468660 -1.875609
5.003783 -5.064744 -2.077372
5.498250 -5.010980 -2.099917
5.836429 -9.181876 -1.822901
6.737225 -9.419800 -1.841861
4.656358 -7.669571 -1.947490
5.150294 -7.549037 -1.914306
7.635206 -9.411669 -1.848183
8.838458 -9.817920 -1.888221
5.838139 -7.515191 -1.928484
6.593036 -7.602542 -1.956268
7.359510 -11.661805 -1.789317
8.468567 -11.917538 -1.818247
1.024152 -1.023399 0.273862
1.035634 -0.992791 0.285007
9.822845 -12.223370 -1.848261
11.559556 -12.906134 -1.888925
6.865098 -8.903262 -1.859828
7.677684 -8.928426 -1.858446
13.357834 -13.250081 -1.901520
15.477005 -13.772235 -1.947039
8.801083 -9.066463 -1.884995
9.885345 -9.171996 -1.909013
17.033356 -27.005905 -1.099430
17.520164 -24.605627 -0.733185
10.651613 -17.671858 -1.745162
13.147155 -19.313063 -1.761761
19.149176 -23.935846 -0.478380
54.815247 -61.084755 -0.875901
16.112284 -20.972204 -1.817718
19.303627 -22.417244 -1.775118
0.918203 -0.877793 0.200556
1.043960 -0.962897 0.213030
23.773811 -24.612877 -1.772546
29.163515 -27.025129 -1.817955
0.742508 -1.136906 0.291486
6.609910 -9.346198 1.082466
3.263883 -5.382259 0.297443
5.508627 -8.134917 0.428754
0.872916 -1.051751 0.316699
0.945629 -1.093744 0.336462
0.861017 -1.082942 0.248070
0.921411 -1.111021 0.263205
2.700325 -4.302881 -1.915696
2.976462 -4.233200 -1.927867
7.331157 -7.504110 -1.943777
8.015567 -7.394334 -1.924790
3.386188 -4.175060 -1.958898
3.983497 -4.410128 -2.115825
2.799894 -3.613192 -1.909724
3.074981 -3.560855 -1.926929
4.620722 -4.483912 -2.241926
4.301744 -3.763624 -1.903851
3.399268 -3.431547 -1.933077
3.711252 -3.368623 -1.942671
4.007061 -6.347730 -2.040285
4.359339 -6.175492 -1.982531
2.994788 -5.004387 -1.861879
3.422848 -5.084176 -1.936816
4.795944 -5.935718 -1.950604
5.292947 -5.881192 -1.948445
4.193696 -5.429072 -2.132329
4.560048 -5.280267 -2.101204
5.645194 -5.528738 -1.862705
6.223279 -5.493343 -1.877511
4.983852 -5.076341 -2.075572
5.466916 -5.014054 -2.093522
5.804415 -9.195166 -1.821831
6.677822 -9.399206 -1.833061
4.625237 -7.672467 -1.944299
5.135344 -7.578074 -1.917834
7.598190 -9.426373 -1.846234
8.777193 -9.811814 -1.881222
5.807363 -7.524195 -1.925922
6.566556 -7.620258 -1.955449
7.324933 -11.688225 -1.789894
8.456279 -11.979642 -1.824319
1.020932 -1.026611 0.273862
1.032510 -0.996039 0.285007
9.800447 -12.274338 -1.851658
11.451523 -12.866852 -1.876619
6.829939 -8.915401 -1.857641
7.621378 -8.919621 -1.850788
13.296475 -13.272295 -1.898389
15.401025 -13.791635 -1.942471
8.769824 -9.091223 -1.884337
9.870948 -9.216460 -1.912133
17.425146 -27.821772 -1.136300
17.856544 -25.244459 -0.755506
10.554211 -17.635134 -1.737409
13.085298 -19.352619 -1.761593
0.820038 -0.991618 0.179419
35.663452 -40.008083 -0.499973
16.078945 -21.065550 -1.821851
19.220118 -22.462624 -1.773777
0.915440 -0.880673 0.200556
1.040930 -0.966172 0.213030
23.688082 -24.678795 -1.771852
29.169098 -27.201014 -1.824273
0.738933 -1.139233 0.291486
6.569016 -9.350626 1.080931
3.155780 -5.239635 0.294844
5.517772 -8.203524 0.430166
0.869607 -1.054488 0.316699
0.942189 -1.096709 0.336462
20.519506 -26.960678 1.273899
0.917916 -1.113910 0.263205
2.680972 -4.301893 -1.911133
2.956736 -4.233445 -1.923355
7.284380 -7.503123 -1.937124
7.989411 -7.416811 -1.924043
3.377694 -4.191491 -1.961845
3.927021 -4.375573 -2.091419
2.784123 -3.616179 -1.906399
3.069762 -3.577391 -1.931012
4.589260 -4.481323 -2.232812
4.284231 -3.772174 -1.901127
3.388470 -3.442209 -1.933077
3.695184 -3.375324 -1.939559
3.988114 -6.361917 -2.040848
4.357681 -6.214305 -1.991249
2.979052 -5.013771 -1.861879
3.415325 -5.107449 -1.942005
4.773668 -5.946233 -1.949007
5.262807 -5.884862 -1.943818
4.185812 -5.454292 -2.137407
4.540948 -5.291688 -2.099970
5.627797 -5.546446 -1.862705
6.203079 -5.510296 -1.876560
4.963897 -5.087861 -2.073773
5.429975 -5.011809 -2.084802
5.776541 -9.215026 -1.822188
6.436181 -9.121070 -1.770099
4.603100 -7.690306 -1.945211
5.107135 -7.587707 -1.916070
7.537781 -9.411623 -1.838115
8.721316 -9.811318 -1.875440
5.780142 -7.537741 -1.924641
6.548969 -7.648268 -1.957497
7.276710 -11.692675 -1.786723
8.370719 -11.938115 -1.812727
1.017702 -1.029814 0.273862
1.029376 -0.999278 0.285007
9.769215 -12.314399 -1.853225
11.426855 -12.920586 -1.879514
6.775775 -8.902328 -1.849624
7.583094 -8.931533 -1.848004
13.251914 -13.311181 -1.897942
15.360579 -13.842609 -1.942887
8.733047 -9.110167 -1.882363
9.818868 -9.225825 -1.907141
3.402231 -5.430663 -0.053052
19.344316 -27.526852 -0.840425
10.506876 -17.681906 -1.738922
12.984369 -19.334116 -1.755527
28.700068 -36.361332 -0.829383
35.219173 -39.760799 -0.493637
16.042768 -21.155712 -1.825679
19.092525 -22.456055 -1.767880
0.912669 -0.883545 0.200556
1.037890 -0.969437 0.213030
23.588406 -24.729958 -1.770000
29.173859 -27.377199 -1.830591
6.158843 -9.925932 0.969791
0.786535 -1.166939 0.309900
3.201467 -5.354483 0.296625
5.503124 -8.237414 0.430621
0.866290 -1.057215 0.316699
0.938738 -1.099663 0.336462
0.854196 -1.088331 0.248070
0.914412 -1.116789 0.263205
2.671306 -4.316607 -1.914175
2.918949 -4.207814 -1.906059
7.263489 -7.528801 -1.937907
7.964633 -7.440537 -1.923670
3.356424 -4.191882 -1.956688
3.907012 -4.380950 -2.087830
2.777137 -3.630713 -1.909724
3.047778 -3.574574 -1.923663
4.585804 -4.506264 -2.238421
4.341599 -3.846407 -1.934504
3.377640 -3.452837 -1.933077
3.684562 -3.386916 -1.939559
3.970125 -6.377681 -2.041972
4.329294 -6.215362 -1.986890
2.958523 -5.014948 -1.858596
3.397156 -5.115010 -1.940708
4.765736 -5.974802 -1.953799
5.228829 -5.884081 -1.937650
4.165223 -5.462877 -2.135503
4.524302 -5.305928 -2.099970
5.611715 -5.565468 -1.863200
6.188641 -5.532336 -1.877511
4.953181 -5.108929 -2.076172
5.412797 -5.027546 -2.084221
5.725806 -9.197990 -1.814702
6.644742 -9.478041 -1.840846
4.591789 -7.726530 -1.951137
5.076741 -7.594004 -1.913424
7.511853 -9.439897 -1.839089
8.674711 -9.820921 -1.871789
5.757613 -7.557419 -1.925068
6.532544 -7.677731 -1.959956
7.224382 -11.690193 -1.782398
8.341117 -11.975717 -1.814659
1.014462 -1.033005 0.273862
1.026231 -1.002507 0.285007
9.702309 -12.309166 -1.847216
11.429532 -13.005569 -1.887477
6.765512 -8.947141 -1.855091
7.546084 -8.944794 -1.845567
13.191886 -13.334354 -1.895034
15.293416 -13.869447 -1.939565
8.734254 -9.169044 -1.889599
9.755322 -9.224118 -1.899653
3.311745 -5.322251 -0.047317
19.271492 -27.607143 -0.841173
10.492668 -17.785189 -1.746674
12.903629 -19.344994 -1.752495
19.364151 -24.678778 -0.494415
34.833649 -39.575649 -0.488436
