ply
format ascii 1.0
element vertex 1696
property float x
property float y
property float z
end_header
3.316405 3.611689 -1.771790
3.193434 3.862078 -1.757637
2.990908 3.114699 -1.794196
2.870186 3.320398 -1.785658
2.988441 4.157401 -1.748350
2.849461 4.415449 -1.736964
2.668527 3.557483 -1.765808
2.547040 3.792078 -1.755142
4.931313 4.236098 -1.745659
4.856928 4.619290 -1.740072
4.296428 3.514163 -1.764055
4.136032 3.763037 -1.752616
4.598400 4.988809 -1.716865
4.521162 5.452445 -1.727915
3.942859 4.097123 -1.739451
3.843387 4.443808 -1.743854
4.319469 5.941184 -1.720699
4.172414 6.405228 -1.716831
3.630986 4.797797 -1.730647
3.483994 5.127432 -1.723215
7.716530 6.623574 -1.694217
7.639507 7.313462 -1.669226
6.209072 5.113271 -1.730060
6.091328 5.577025 -1.715383
7.259748 7.855482 -1.614018
6.890385 8.258073 -1.510276
5.910367 6.131079 -1.709859
5.818131 6.717280 -1.709980
9.091478 7.754377 -1.521215
8.403816 7.991931 -1.397094
26.673485 34.407539 2.325106
5.663932 8.176301 0.772937
7.477774 8.023595 -1.227233
6.870102 8.183477 -1.081756
7.111950 7.323201 -1.668137
6.859999 7.854464 -1.620365
6.417148 8.666273 -0.997624
6.166191 9.303437 -0.949668
6.344893 8.228481 -1.510713
5.636456 8.138161 -1.342756
27.415249 23.353231 -1.266902
26.959740 25.719849 -0.953213
14.627182 11.961940 -1.580092
9.208784 8.402568 -0.840498
22.574759 24.079308 -0.531096
21.633837 25.844093 -0.237378
8.510360 8.748245 -0.724295
8.280990 9.477292 -0.633441
6.183938 8.341761 0.154766
0.804357 1.170484 0.213030
17.026772 21.956045 -1.399512
16.811501 24.330198 -1.298250
1.019535 0.896895 0.291486
55.391621 52.693016 6.084273
1.103608 0.933196 0.226642
1.070328 0.943682 0.237483
0.916671 1.013842 0.316699
6.074631 7.216033 1.086530
0.949240 1.006508 0.248070
30.025288 34.369804 2.082855
3.633450 3.083593 -1.786420
3.523054 3.317873 -1.791752
5.612181 7.324922 -1.691752
5.408474 7.863235 -1.665914
3.318851 3.591740 -1.766633
3.210297 3.857791 -1.760509
2.991774 3.096184 -1.788378
2.879413 3.309981 -1.784841
3.004804 4.152527 -1.750453
2.863318 4.406476 -1.736964
2.697497 3.572383 -1.778614
2.556893 3.780994 -1.753586
4.960709 4.234229 -1.751844
4.886743 4.618609 -1.746066
4.313334 3.505387 -1.766681
4.153422 3.755127 -1.755210
4.621947 4.982788 -1.720060
4.530869 5.429284 -1.724830
3.975595 4.105063 -1.748972
3.852357 4.425950 -1.741385
4.338111 5.927585 -1.720699
4.194634 6.395345 -1.717782
3.651853 4.793930 -1.733647
3.503305 5.121213 -1.724959
7.731298 6.594208 -1.692792
7.668142 7.294875 -1.670580
6.213015 5.083914 -1.726413
6.107378 5.556546 -1.714942
7.305948 7.855706 -1.619214
6.838975 8.143859 -1.491714
5.945975 6.129261 -1.714983
5.841768 6.701929 -1.710799
9.130836 7.763104 -1.526404
8.465131 8.025167 -1.406478
26.779045 34.431801 2.329195
5.704015 8.206818 0.775684
7.489009 8.010394 -1.226972
6.852342 8.136155 -1.075964
7.135827 7.324666 -1.671417
6.883976 7.857040 -1.623497
6.506852 8.758104 -1.011940
6.184088 9.298719 -0.950291
6.332379 8.185802 -1.503806
5.650354 8.130923 -1.343068
27.486954 23.339865 -1.268787
27.078276 25.751915 -0.956580
14.639771 11.933928 -1.579336
10.381484 9.447187 -0.973262
22.646830 24.080212 -0.532215
21.687254 25.825409 -0.237642
8.557589 8.769049 -0.727969
15.177350 17.347757 -1.336300
19.327307 25.893959 0.044595
19.471251 29.328556 0.374775
17.068602 21.938723 -1.400206
16.762175 24.177288 -1.290404
1.020943 0.895293 0.291486
55.545193 52.673206 6.091791
1.105072 0.931461 0.226642
42.541161 38.750206 1.515628
0.918263 1.012401 0.316699
6.098764 7.221732 1.088400
0.950819 1.005016 0.248070
30.138464 34.390263 2.086557
3.632614 3.073134 -1.783378
3.524228 3.308508 -1.789496
5.620080 7.311443 -1.690578
5.435270 7.875792 -1.670770
3.332116 3.594665 -1.771053
3.216353 3.852744 -1.760509
3.000455 3.095376 -1.790872
2.885800 3.306836 -1.785658
3.006890 4.141762 -1.747648
2.871254 4.403553 -1.737646
2.689722 3.550687 -1.769010
2.566931 3.783095 -1.756698
4.949752 4.211577 -1.745097
4.885618 4.602977 -1.742797
4.324728 3.503337 -1.769307
4.155117 3.744780 -1.753265
4.621857 4.967085 -1.716865
4.546803 5.431080 -1.727915
3.979383 4.096105 -1.747702
3.865528 4.427086 -1.744471
4.340502 5.911416 -1.717731
4.204674 6.388749 -1.717782
3.658213 4.786677 -1.733047
3.513498 5.118869 -1.726122
7.743149 6.583327 -1.693148
7.671030 7.274662 -1.668549
6.222506 5.075375 -1.726869
6.108895 5.540370 -1.712736
7.342573 7.870136 -1.625060
6.854298 8.136136 -1.492322
5.941926 6.105953 -1.710714
5.838160 6.676493 -1.706291
9.186994 7.761126 -1.532458
8.491746 7.999889 -1.406754
26.954884 34.433952 2.334550
5.766271 8.241300 0.779347
7.565905 8.041578 -1.236900
6.971316 8.225372 -1.093580
7.157427 7.300806 -1.671052
6.932011 7.862019 -1.629763
6.465086 8.645466 -0.998966
6.232028 9.307383 -0.953821
6.378741 8.192272 -1.509397
5.716492 8.171509 -1.354300
27.618235 23.302303 -1.271901
27.236019 25.739527 -0.959884
14.688044 11.896623 -1.580659
10.205999 9.228343 -0.949843
22.832432 24.125017 -0.535799
21.850840 25.854950 -0.239331
8.461881 8.617170 -0.714497
15.221251 17.287985 -1.335228
19.499975 25.954546 0.043832
19.395676 29.016033 0.373329
17.157173 21.910110 -1.402058
16.618853 23.809828 -1.270839
1.023751 0.892080 0.291486
55.798935 52.581852 6.101151
1.107994 0.927984 0.226642
42.730881 38.678085 1.517723
0.921440 1.009510 0.316699
6.140707 7.225344 1.091205
0.953973 1.002023 0.248070
30.337524 34.398853 2.092235
3.636563 3.056974 -1.780336
3.531911 3.294875 -1.787992
5.644232 7.295294 -1.690970
5.462225 7.861907 -1.671517
3.351048 3.592294 -1.775473
3.218896 3.831135 -1.754766
3.017836 3.093700 -1.795858
2.897374 3.299131 -1.786474
3.019891 4.132293 -1.747648
2.874836 4.378738 -1.730834
2.706465 3.549473 -1.773011
2.583959 3.782646 -1.760589
4.961492 4.194769 -1.744535
4.904258 4.591564 -1.744431
4.332760 3.487375 -1.767994
4.173881 3.738048 -1.756508
4.636119 4.951135 -1.716333
4.555168 5.406387 -1.724316
3.994899 4.086280 -1.748972
3.881920 4.417788 -1.745705
4.367157 5.908627 -1.721194
4.222595 6.372258 -1.716831
3.669728 4.770636 -1.731247
3.529566 5.107803 -1.726122
7.771331 6.565294 -1.694931
7.702439 7.258654 -1.670580
6.239941 5.057018 -1.727325
6.137834 5.531631 -1.716265
7.378101 7.858508 -1.627658
6.887479 8.123622 -1.494148
5.958341 6.084467 -1.709859
5.875867 6.677268 -1.711619
9.253849 7.767764 -1.540530
8.518276 7.974529 -1.407030
27.121071 34.422821 2.339126
0.844269 1.159906 0.285007
7.593862 8.020644 -1.237423
7.027956 8.239761 -1.099371
7.178943 7.276889 -1.670688
6.968405 7.853491 -1.632895
6.512596 8.652059 -1.002769
6.199181 9.195250 -0.942194
6.338522 8.088509 -1.491637
5.756866 8.174546 -1.358356
27.813883 23.318048 -1.278455
27.395376 25.727789 -0.963251
14.730002 11.854162 -1.581226
9.721421 8.733076 -0.891380
22.810116 23.950449 -0.532619
21.990200 25.854774 -0.240519
8.560549 8.662731 -0.722305
8.311557 9.362620 -0.629018
19.621265 25.945774 0.043500
19.389692 28.810539 0.372496
17.263039 21.903116 -1.405530
16.711912 23.783669 -1.272469
1.026549 0.888860 0.291486
1.044473 0.943112 0.309900
1.110904 0.924499 0.226642
42.745178 38.447342 1.514444
0.924606 1.006611 0.316699
6.184016 7.230287 1.094197
0.957116 0.999022 0.248070
30.517017 34.384129 2.096678
3.651853 3.050247 -1.783378
3.540892 3.282496 -1.787241
5.671959 7.283704 -1.692535
5.486896 7.844709 -1.671517
3.345680 3.564214 -1.765897
3.240499 3.832458 -1.760509
3.010872 3.067429 -1.785054
2.908925 3.291388 -1.787291
3.039562 4.131805 -1.751855
2.901956 4.390146 -1.739689
2.713104 3.535163 -1.769810
2.595829 3.774511 -1.760589
4.986440 4.188992 -1.749033
4.908831 4.566922 -1.740617
4.348138 3.477266 -1.769964
4.178566 3.718596 -1.753265
4.659615 4.944934 -1.719527
4.578351 5.399444 -1.726887
4.003707 4.069673 -1.747068
3.897032 4.407001 -1.746323
4.382211 5.890228 -1.719710
4.241519 6.357343 -1.716356
3.687045 4.762093 -1.732447
3.540163 5.088813 -1.723215
7.785874 6.535803 -1.693505
7.730944 7.239826 -1.671934
6.252755 5.034958 -1.726413
6.155181 5.512322 -1.716265
7.431285 7.865348 -1.634479
6.901450 8.088385 -1.491409
5.985680 6.074045 -1.712421
5.889052 6.649961 -1.709160
9.297998 7.755093 -1.544278
8.514339 7.920681 -1.401510
27.291178 34.415676 2.343994
0.847908 1.157248 0.285007
7.624506 8.002479 -1.238468
7.073147 8.240286 -1.102991
7.204545 7.257085 -1.671417
7.011356 7.852174 -1.637768
6.509644 8.592026 -0.997177
6.185733 9.113087 -0.934305
6.414152 8.131938 -1.505122
5.779101 8.151576 -1.357420
28.429312 23.681660 -1.307378
27.568073 25.727591 -0.967179
14.757827 11.800382 -1.580092
1.067026 0.921412 0.094244
22.867241 23.859921 -0.532036
22.123287 25.846376 -0.241575
8.954095 9.002652 -0.762110
8.574368 9.598862 -0.652607
19.763306 25.963526 0.042998
19.379244 28.600391 0.371634
17.326790 21.842524 -1.405067
16.883316 23.868116 -1.281029
1.029336 0.885631 0.291486
56.491573 52.568626 6.139358
1.113802 0.921005 0.226642
43.066921 38.492844 1.520592
0.927764 1.003701 0.316699
0.959825 1.081307 0.336462
0.960249 0.996010 0.248070
30.702038 34.374573 2.101450
3.667136 3.043454 -1.786420
3.549829 3.270093 -1.786488
5.688741 7.258149 -1.690578
5.514892 7.832261 -1.672638
3.373552 3.571169 -1.775473
3.242903 3.810835 -1.754766
3.028210 3.065673 -1.790040
2.919250 3.282234 -1.787291
3.052527 4.122236 -1.751855
2.901256 4.359020 -1.730153
2.727583 3.530954 -1.772211
2.604553 3.761775 -1.758254
4.990705 4.165962 -1.745659
4.924561 4.552790 -1.741162
4.351616 3.457747 -1.766681
4.194461 3.709230 -1.755210
4.672462 4.927485 -1.718463
4.595291 5.385035 -1.726887
4.016472 4.057075 -1.747068
3.910857 4.394737 -1.746323
4.400693 5.876431 -1.719710
4.262546 6.345603 -1.716831
3.703166 4.751986 -1.733047
3.552858 5.072950 -1.721472
7.810911 6.515082 -1.694574
7.755090 7.216850 -1.672272
6.273113 5.018925 -1.727781
6.176826 5.496864 -1.717588
7.464136 7.850525 -1.636428
6.949939 8.093716 -1.496887
5.995071 6.045529 -1.709432
5.920300 6.643150 -1.712438
9.360478 7.757335 -1.551485
8.714819 8.056992 -1.434904
0.883369 1.147124 0.273862
27.475523 38.657566 2.921410
7.584951 7.911369 -1.226188
7.075702 8.190926 -1.098647
7.237060 7.244131 -1.673968
7.039927 7.834514 -1.638813
6.591007 8.642519 -1.007242
6.233344 9.121575 -0.937834
6.460583 8.137962 -1.510713
5.827549 8.165603 -1.363659
28.460434 23.556589 -1.305084
27.719070 25.706158 -0.970172
14.797944 11.756436 -1.580470
15.237923 13.536157 -1.509711
24.878584 25.792715 -0.594471
22.259140 25.840431 -0.242684
8.826839 8.819759 -0.745269
8.627108 9.597155 -0.654886
19.880079 25.947325 0.042706
19.383434 28.413750 0.370907
17.431492 21.833202 -1.408424
17.228983 24.195932 -1.304874
1.032113 0.882393 0.291486
1.050378 0.936531 0.309900
1.116690 0.917501 0.226642
43.220509 38.386593 1.521594
0.930912 1.000782 0.316699
0.963217 1.078287 0.336462
56.464573 56.089695 2.716698
30.880627 34.356766 2.105810
3.672378 3.028412 -1.784139
3.562805 3.261443 -1.787992
5.712732 7.241778 -1.690970
5.543997 7.821323 -1.674132
3.383465 3.559213 -1.774736
3.269341 3.817719 -1.763380
3.039116 3.057428 -1.790872
2.927127 3.270311 -1.785658
3.068842 4.117115 -1.753958
2.923247 4.362423 -1.735602
2.729594 3.510846 -1.765808
2.618447 3.756610 -1.759811
5.011178 4.156361 -1.748471
4.943075 4.541220 -1.742797
4.372875 3.452206 -1.771277
4.204677 3.694780 -1.754562
4.689255 4.914172 -1.718995
4.624723 5.385282 -1.732027
4.029197 4.044437 -1.747068
3.923381 4.381008 -1.745705
4.422647 5.867208 -1.721194
4.285708 6.337020 -1.718257
3.719260 4.741826 -1.733647
3.574257 5.069607 -1.724378
7.828301 6.488009 -1.693861
7.774834 7.189769 -1.671595
6.287322 4.997988 -1.727325
6.194064 5.477433 -1.717588
7.502438 7.841265 -1.639675
6.985641 8.083834 -1.499321
6.027877 6.040456 -1.713703
5.929414 6.611369 -1.708750
9.413884 7.751730 -1.556962
8.740089 8.029572 -1.434904
27.630827 34.397636 2.353632
27.630510 38.618160 2.924729
7.709140 7.990007 -1.244999
7.026062 8.081570 -1.084651
7.269568 7.231040 -1.676519
7.069777 7.818214 -1.640205
6.610845 8.612327 -1.005900
6.293433 9.147906 -0.943648
6.481178 8.111472 -1.509397
5.910600 8.227623 -1.379259
28.503422 23.441690 -1.303445
27.896660 25.708416 -0.974287
14.833243 11.708653 -1.580281
15.301270 13.506705 -1.512070
25.025000 25.781807 -0.596576
22.379484 25.815735 -0.243476
9.009066 8.944813 -0.761957
8.711984 9.630785 -0.660381
20.015299 25.954376 0.042264
19.364029 28.194357 0.369987
17.508768 21.789213 -1.409234
6.082200 8.456154 -0.320900
1.034880 0.879146 0.291486
1.053315 0.933226 0.309900
1.119567 0.913988 0.226642
43.363384 38.270470 1.522277
0.934052 0.997852 0.316699
0.966600 1.075255 0.336462
0.966489 0.989957 0.248070
31.064781 34.344093 2.110500
3.684750 3.019188 -1.785660
3.575763 3.252742 -1.789496
5.733010 7.220729 -1.690187
5.570817 7.807072 -1.674879
3.385584 3.539207 -1.769580
3.275263 3.800327 -1.759791
3.037059 3.036359 -1.783391
2.937387 3.261098 -1.785658
3.073840 4.097004 -1.749051
2.930675 4.343832 -1.731515
2.747439 3.510873 -1.770610
2.635486 3.755935 -1.763701
5.037587 4.151529 -1.753531
4.958734 4.526970 -1.743342
4.377733 3.433814 -1.768651
4.217685 3.682803 -1.755210
4.706011 4.900800 -1.719527
4.639103 5.367791 -1.730999
4.040535 4.030426 -1.746433
3.944730 4.377172 -1.749409
4.441059 5.853284 -1.721194
4.299069 6.313867 -1.715405
3.725819 4.719670 -1.729448
3.593471 5.063048 -1.726122
7.842558 6.458393 -1.692435
7.798833 7.166643 -1.671934
6.306057 4.980613 -1.728236
6.203936 5.451483 -1.715383
7.548992 7.840348 -1.644872
7.018766 8.070814 -1.501147
6.055158 6.029734 -1.716265
5.961924 6.605821 -1.712438
9.461205 7.740867 -1.561286
8.727311 7.967268 -1.427729
27.802843 34.389851 2.358598
6.088571 8.418777 0.798347
7.746664 7.978525 -1.247351
7.064452 8.074430 -1.087064
7.300662 7.216442 -1.678705
7.104877 7.807645 -1.642989
6.652493 8.610354 -1.008584
6.328911 9.137918 -0.944893
6.500428 8.083401 -1.507753
5.952566 8.231466 -1.383626
28.527374 23.311607 -1.300823
25.609646 23.449469 -0.874093
14.849565 11.646053 -1.577823
15.361584 13.474362 -1.514092
25.164589 25.763096 -0.598457
22.532715 25.828238 -0.244928
8.919064 8.800463 -0.749250
8.760959 9.624066 -0.662258
20.140924 25.948214 0.041902
19.317299 27.937529 0.368848
17.555761 21.707731 -1.407266
6.100563 8.425660 -0.320187
1.037637 0.875890 0.291486
1.056242 0.929913 0.309900
1.122433 0.910467 0.226642
43.046108 37.750214 1.509025
0.937182 0.994913 0.316699
0.969973 1.072213 0.336462
55.776672 54.715050 2.670761
31.257210 34.339481 2.115684
3.695657 3.008758 -1.786420
3.583228 3.238993 -1.787992
5.760580 7.208799 -1.691752
5.590747 7.783138 -1.673385
3.405762 3.537883 -1.774736
3.281106 3.782936 -1.756202
3.060863 3.040820 -1.792534
2.946399 3.250495 -1.784841
3.096924 4.100729 -1.755360
2.952698 4.347091 -1.736964
2.757312 3.500792 -1.769810
2.636728 3.732529 -1.755920
5.040175 4.127213 -1.749595
4.972931 4.511370 -1.743342
4.385506 3.417736 -1.767337
4.233503 3.673275 -1.757156
4.722729 4.887373 -1.720060
4.650891 5.347339 -1.728943
4.061295 4.025687 -1.750241
3.949559 4.354855 -1.745088
4.458243 5.837768 -1.720699
4.325440 6.309966 -1.718257
3.751367 4.721340 -1.734846
3.598299 5.036118 -1.720309
7.855177 6.427513 -1.690653
7.827118 7.147439 -1.673288
6.318601 4.958384 -1.727325
6.231288 5.440981 -1.718470
7.577714 7.820837 -1.645846
7.051874 8.057669 -1.502973
6.071283 6.007941 -1.715410
5.970838 6.573982 -1.708750
9.479326 7.706122 -1.560133
8.774263 7.959821 -1.431869
27.966270 34.370476 2.362881
6.088055 8.362410 0.795714
7.796695 7.979617 -1.252053
7.206233 8.185098 -1.108541
7.309235 7.179724 -1.675061
7.128047 7.783829 -1.642641
6.652589 8.554958 -1.003664
6.329243 9.077129 -0.939703
6.487199 8.015496 -1.497557
5.986508 8.223924 -1.385810
28.546146 23.177814 -1.297955
25.650688 23.339268 -0.872721
14.895514 11.606669 -1.578957
15.409843 13.431278 -1.514766
25.319756 25.759432 -0.600830
22.671755 25.823483 -0.246089
8.851076 8.679053 -0.738992
8.703729 9.500675 -0.653546
20.265493 25.939934 0.041551
19.343346 27.788010 0.368331
17.618830 21.646278 -1.406803
6.114108 8.388663 -0.319066
1.040384 0.872626 0.291486
1.059158 0.926589 0.309900
1.125288 0.906936 0.226642
43.241352 37.681816 1.511347
0.940303 0.991963 0.316699
0.973337 1.069160 0.336462
0.972690 0.983864 0.248070
31.441833 34.325138 2.120373
3.702203 2.994821 -1.784899
3.594759 3.228964 -1.788744
5.786900 7.195239 -1.692926
5.623202 7.776700 -1.676000
3.420763 3.531152 -1.776946
3.305178 3.786736 -1.763380
3.058681 3.019758 -1.785054
2.963932 3.249359 -1.789741
3.104087 4.083551 -1.751855
2.961072 4.330005 -1.733558
2.774032 3.499259 -1.773812
2.654797 3.733271 -1.760589
5.053118 4.111357 -1.749595
4.991354 4.499606 -1.744976
4.391726 3.400492 -1.765368
4.242168 3.657471 -1.755859
4.744807 4.879396 -1.722722
4.670203 5.335618 -1.729971
4.072566 4.011582 -1.749606
3.964498 4.343835 -1.745705
4.480123 5.828329 -1.722184
4.346343 6.297948 -1.718733
3.764984 4.708045 -1.734247
3.618547 5.031020 -1.722634
7.878393 6.405276 -1.691366
7.848079 7.121484 -1.672949
6.332608 4.937315 -1.726869
6.248353 5.421377 -1.718470
7.610536 7.805449 -1.647795
7.056309 8.011688 -1.498104
6.092925 5.991569 -1.716265
6.001995 6.566781 -1.712029
9.523535 7.692430 -1.563881
8.822720 7.953490 -1.436284
0.897714 1.135932 0.273862
6.109589 8.336789 0.795256
7.849593 7.983298 -1.257279
7.213525 8.141571 -1.105162
7.330342 7.155356 -1.674696
7.157787 7.767204 -1.644033
6.640112 8.484030 -0.996506
6.393037 9.107757 -0.946139
6.516096 7.999657 -1.498544
5.982060 8.163569 -1.377699
28.681067 23.138170 -1.301233
28.343679 25.630873 -0.982953
14.930327 11.558605 -1.578768
15.454972 13.385417 -1.515103
25.473722 25.753637 -0.603159
22.805683 25.812124 -0.247145
8.951285 8.722030 -0.746800
8.652553 9.385094 -0.645504
20.388952 25.929565 0.041209
19.347998 27.609123 0.367641
17.699409 21.606255 -1.407961
6.159269 8.395229 -0.320696
1.043120 0.869353 0.291486
1.062064 0.923258 0.309900
1.128132 0.903396 0.226642
43.048252 37.276020 1.501966
0.943415 0.989005 0.316699
0.976691 1.066098 0.336462
0.975776 0.980804 0.248070
31.628016 34.311462 2.125146
3.714489 2.985478 -1.786420
3.606260 3.218897 -1.789496
5.808237 7.175504 -1.692535
5.646451 7.757404 -1.675626
3.429229 3.517739 -1.775473
3.302361 3.759428 -1.754766
3.078602 3.020262 -1.791703
2.965538 3.230566 -1.784025
3.119191 4.076744 -1.753257
2.978894 4.326898 -1.736283
2.780406 3.484824 -1.770610
2.661192 3.717393 -1.756698
5.074992 4.102666 -1.752969
4.996893 4.476166 -1.741707
4.406894 3.390113 -1.767337
4.260792 3.650315 -1.759102
4.760112 4.864467 -1.722722
4.684397 5.318011 -1.728943
4.089232 4.002730 -1.751511
3.981966 4.335580 -1.747557
4.494836 5.809641 -1.720699
4.362797 6.279466 -1.717307
3.779755 4.696195 -1.734247
3.633217 5.018073 -1.722053
7.903078 6.384193 -1.692435
7.877715 7.103414 -1.674642
6.355804 4.923335 -1.729148
6.259458 5.396606 -1.716706
7.635017 7.781501 -1.647795
7.085365 7.993929 -1.499017
6.097700 5.958785 -1.711995
6.005422 6.529113 -1.706701
9.592495 7.698299 -1.572241
8.865334 7.941630 -1.439596
0.901279 1.133106 0.273862
6.145202 8.330430 0.796172
7.922166 8.006409 -1.266162
7.199537 8.074317 -1.097923
7.349957 7.129559 -1.673968
7.187498 7.750466 -1.645426
6.778993 8.604928 -1.016861
6.246565 8.838662 -0.914374
6.518617 7.951741 -1.492624
6.010016 8.147919 -1.378323
28.792622 23.079163 -1.303281
25.826546 23.204382 -0.873968
14.960247 11.506791 -1.578012
15.496950 13.336792 -1.515103
25.625088 25.744276 -0.605399
22.943758 25.804649 -0.248281
9.143723 8.853043 -0.764406
0.961503 1.002284 0.118607
20.508833 25.913965 0.040897
19.337906 27.410851 0.366837
17.800266 21.590567 -1.410970
6.189163 8.380666 -0.321002
1.045846 0.866072 0.291486
57.770817 51.762062 6.170198
1.130964 0.899847 0.226642
43.115162 37.097530 1.500463
0.946517 0.986036 0.316699
0.980036 1.063024 0.336462
56.874775 54.749596 2.696380
31.822580 34.305737 2.130411
3.725302 2.974940 -1.787181
3.614975 3.206314 -1.788744
5.834482 7.161772 -1.693709
5.682366 7.755507 -1.679362
3.444192 3.510909 -1.777683
3.331363 3.768704 -1.764815
3.078905 3.001741 -1.785885
2.981828 3.227975 -1.788107
3.133135 4.068402 -1.753958
2.994601 4.320619 -1.737646
2.793653 3.478916 -1.772211
2.681407 3.721020 -1.762923
5.086356 4.085505 -1.752406
5.018095 4.466870 -1.744431
4.423549 3.380812 -1.769964
4.266500 3.631977 -1.756508
4.774014 4.848119 -1.722190
4.710020 5.313424 -1.732541
4.100422 3.988546 -1.750876
3.998137 4.325853 -1.748791
4.508281 5.789391 -1.718720
4.382504 6.265728 -1.717307
3.789661 4.678386 -1.731847
3.651207 5.009736 -1.723215
7.932325 6.366699 -1.694574
7.901458 7.079946 -1.674980
6.365053 4.898611 -1.727325
6.285247 5.384556 -1.719352
7.667768 7.765882 -1.649744
7.117006 7.979020 -1.500538
6.120609 5.943668 -1.713275
6.036510 6.521737 -1.709980
9.608881 7.661975 -1.570800
8.905005 7.926944 -1.442356
0.904834 1.130270 0.273862
6.182018 8.325540 0.797202
7.931853 7.966063 -1.263288
7.256604 8.087201 -1.103715
7.373736 7.107796 -1.674332
7.211810 7.727850 -1.645426
6.851816 8.641102 -1.025137
6.257061 8.794642 -0.911260
6.539785 7.926667 -1.491637
6.061402 8.163960 -1.385186
30.610435 24.376701 -1.394719
25.933586 23.153780 -0.875402
14.993154 11.457325 -1.577634
15.538770 13.288046 -1.515103
25.775223 25.732826 -0.607593
23.079336 25.793591 -0.249363
15.407369 14.799593 -1.427472
8.529268 9.134719 -0.627544
20.648760 25.922886 0.040425
19.342941 27.235758 0.366167
17.882044 21.551432 -1.412243
17.429020 23.524815 -1.283169
1.048561 0.862782 0.291486
58.050762 51.685123 6.182321
1.133786 0.896290 0.226642
43.597603 37.275211 1.511438
55.401093 55.247635 6.813294
0.983370 1.059940 0.336462
0.981919 0.974654 0.248070
32.016048 34.297672 2.135595
3.730263 2.959796 -1.784899
3.629181 3.198640 -1.791000
5.858199 7.144921 -1.694100
5.706701 7.737619 -1.679362
3.446011 3.490857 -1.772526
3.338252 3.752616 -1.761944
3.100147 3.003375 -1.793365
2.994423 3.221281 -1.789741
3.147054 4.060014 -1.754660
3.015638 4.322022 -1.742414
2.798765 3.463029 -1.768209
2.685570 3.702096 -1.757476
5.094650 4.065933 -1.750720
5.027792 4.447243 -1.742797
4.434148 3.366899 -1.769964
4.285082 3.624700 -1.759750
4.785133 4.829005 -1.720592
4.735658 5.308731 -1.736139
4.114301 3.976958 -1.751511
4.014287 4.316070 -1.750026
4.531250 5.781285 -1.720699
4.406617 6.258299 -1.719208
3.806764 4.669406 -1.733047
3.664675 4.995146 -1.722053
7.961536 6.349087 -1.696713
7.928067 7.059033 -1.675996
6.389715 4.885658 -1.730060
6.296206 5.359709 -1.717588
7.699097 7.748738 -1.651367
7.126234 7.938933 -1.496887
6.140661 5.925765 -1.713703
6.038347 6.482634 -1.704242
9.634457 7.632977 -1.571088
8.955037 7.921297 -1.447048
0.908380 1.127421 0.273862
6.218863 8.320498 0.798232
7.941363 7.925733 -1.260414
7.304533 8.089469 -1.107817
7.405993 7.094093 -1.676883
7.234706 7.703717 -1.645078
6.827948 8.555964 -1.015966
6.442804 8.996881 -0.939703
6.570974 7.913658 -1.493281
6.272053 8.393794 -1.434168
30.810732 24.378300 -1.401192
27.128464 24.069357 -0.922226
15.025897 11.407765 -1.577256
15.588020 13.245627 -1.515945
25.932632 25.727720 -0.610012
23.223089 25.790855 -0.250604
9.115405 8.715664 -0.755527
8.642453 9.198221 -0.635854
20.771414 25.909355 0.040094
19.356365 27.073931 0.365573
17.965031 21.513525 -1.413632
17.527882 23.503597 -1.285309
1.051267 0.859484 0.291486
58.338261 51.613544 6.195210
1.136596 0.892724 0.226642
43.406784 36.876427 1.502239
55.664989 55.163074 6.824073
0.986695 1.056845 0.336462
57.191540 54.366398 2.695244
32.211143 34.290192 2.140861
3.749755 2.956024 -1.790222
3.632273 3.181082 -1.787241
5.884372 7.131010 -1.695274
5.727478 7.714911 -1.678241
3.464864 3.487889 -1.776946
3.353738 3.746302 -1.764098
3.117475 3.001144 -1.798352
3.003289 3.210517 -1.788924
3.157473 4.047166 -1.753257
3.024907 4.306352 -1.739689
2.824774 3.472617 -1.778614
2.704733 3.704100 -1.762923
5.099854 4.043976 -1.747908
5.047500 4.436530 -1.744976
4.441676 3.350692 -1.768651
4.290677 3.606324 -1.757156
4.809845 4.823469 -1.724320
4.745882 5.286613 -1.733569
4.129522 3.966629 -1.752780
4.025237 4.300648 -1.748791
4.550594 5.768538 -1.721194
4.424019 6.241247 -1.718257
3.821414 4.657424 -1.733047
3.687131 4.992874 -1.725541
7.970621 6.315518 -1.694217
7.948730 7.032784 -1.675657
6.391040 4.855005 -1.725957
6.318953 5.344961 -1.719352
7.726199 7.727300 -1.652017
7.151139 7.916508 -1.496887
6.156416 5.903748 -1.712848
6.072026 6.477954 -1.708340
9.692657 7.629531 -1.577430
8.966513 7.881328 -1.444564
28.822851 34.307629 2.387124
0.880285 1.132815 0.285007
7.961989 7.896568 -1.259630
7.336568 8.073846 -1.109023
7.423960 7.066737 -1.675790
7.260220 7.682387 -1.645426
6.809856 8.478797 -1.007914
6.137118 8.511086 -0.879910
6.595802 7.892976 -1.493281
6.319694 8.402521 -1.439784
30.525644 23.997576 -1.382347
27.236912 24.013123 -0.923598
15.064842 11.362899 -1.577634
15.637162 13.203032 -1.516787
26.076023 25.707848 -0.611983
23.356325 25.775610 -0.251633
9.323798 8.858309 -0.774664
8.512621 9.002501 -0.620306
20.897963 25.899973 0.039732
6.115238 8.466354 0.256233
18.060820 21.490587 -1.416178
17.637560 23.496370 -1.288366
1.053962 0.856177 0.291486
58.577957 51.498508 6.203188
1.139394 0.889149 0.226642
44.487671 37.555466 1.531021
55.705914 54.857941 6.808410
0.990010 1.053741 0.336462
0.988023 0.968465 0.248070
32.401028 34.276009 2.145797
3.754635 2.940832 -1.787941
3.645031 3.172103 -1.788744
5.900458 7.104963 -1.693318
5.757546 7.704766 -1.680109
3.473161 3.474370 -1.775473
3.354309 3.723207 -1.757637
3.117633 2.982588 -1.792534
3.010873 3.198394 -1.787291
3.169008 4.035760 -1.752556
3.027639 4.281421 -1.732877
2.823976 3.449611 -1.770610
2.713107 3.691112 -1.760589
5.126143 4.038571 -1.752969
5.055635 4.415566 -1.742797
4.455214 3.338974 -1.769964
4.303432 3.594047 -1.757805
4.823603 4.806979 -1.723787
4.771499 5.281751 -1.737168
4.130939 3.943210 -1.747702
4.037430 4.286592 -1.748174
4.562641 5.746647 -1.718720
4.441358 6.224149 -1.717307
3.845795 4.657124 -1.737846
3.699392 4.976645 -1.723797
7.995071 6.294088 -1.695287
7.976693 7.012998 -1.677011
6.414052 4.840745 -1.728236
6.334224 5.323825 -1.718911
7.757449 7.709928 -1.653641
7.177299 7.895470 -1.497191
6.167840 5.877662 -1.710714
6.081634 6.447423 -1.705062
9.740500 7.642321 -1.584061
8.944678 7.837135 -1.438216
0.913682 1.123129 0.273862
0.882064 1.131431 0.285007
8.042220 7.950812 -1.272171
7.358578 8.072605 -1.110712
7.435050 7.055067 -1.675790
7.281737 7.681002 -1.647862
6.813160 8.455734 -1.006124
6.088894 8.415866 -0.868907
6.614548 7.890149 -1.494926
6.369651 8.441560 -1.449456
30.305204 23.747635 -1.368910
27.271595 23.967674 -0.923473
15.077892 11.335640 -1.577067
15.677679 13.195164 -1.518978
26.199139 25.748087 -0.614580
23.457266 25.805531 -0.252821
15.598553 14.749288 -1.435433
8.685700 9.157393 -0.635854
20.987738 25.927706 0.039340
6.119173 8.443759 0.256157
18.119030 21.491171 -1.418378
17.662441 23.452673 -1.287347
1.055305 0.854520 0.291486
58.618294 51.370937 6.199045
1.140790 0.887358 0.226642
44.600128 37.530624 1.532614
0.957301 0.975569 0.316699
0.991664 1.052184 0.336462
0.989543 0.966912 0.248070
32.533154 34.307774 2.150487
3.754857 2.931540 -1.785660
3.652796 3.168818 -1.790249
5.912870 7.097189 -1.693709
5.775512 7.703588 -1.681977
3.483908 3.474135 -1.778420
3.375087 3.734632 -1.766251
3.122314 2.977688 -1.792534
3.020875 3.199000 -1.790557
3.176509 4.032242 -1.753257
3.035441 4.278199 -1.733558
2.830562 3.446581 -1.771411
2.722157 3.691314 -1.762923
5.124910 4.024618 -1.750158
5.055331 4.401274 -1.740072
4.460453 3.331971 -1.769964
4.311968 3.589718 -1.759102
4.827029 4.795337 -1.722190
4.768155 5.261318 -1.732541
4.146787 3.945825 -1.752145
4.046758 4.283022 -1.749409
4.576513 5.745520 -1.720699
4.446627 6.210831 -1.715405
3.849435 4.646687 -1.736046
3.704929 4.967751 -1.722634
8.009602 6.285155 -1.696356
7.989177 7.001764 -1.677350
6.418527 4.828333 -1.727325
6.347053 5.317641 -1.720234
7.773766 7.701891 -1.654615
7.192348 7.887114 -1.497800
6.179905 5.870648 -1.711568
6.106507 6.453547 -1.709570
9.786356 7.628664 -1.588096
9.084079 7.909395 -1.459467
0.917207 1.120252 0.273862
0.885615 1.128653 0.285007
8.098353 7.956002 -1.277919
7.409344 8.077301 -1.115297
7.464355 7.038397 -1.677612
7.300415 7.652369 -1.646470
6.833420 8.426579 -1.005006
6.144486 8.436964 -0.874097
6.638032 7.867821 -1.494597
6.354462 8.366339 -1.438536
30.247162 23.549259 -1.362028
27.473173 23.992403 -0.928710
15.116632 11.290582 -1.577445
15.725173 13.150955 -1.519652
26.344336 25.728455 -0.616596
23.604326 25.804047 -0.254115
15.662282 14.716563 -1.437270
8.747429 9.164768 -0.639070
21.115892 25.918959 0.038968
6.138627 8.414779 0.256099
18.180006 21.426525 -1.417799
17.843315 23.538816 -1.296416
1.057985 0.851200 0.291486
58.841072 51.240200 6.205336
45.825150 34.147858 1.039901
44.196499 36.953979 1.517131
0.960362 0.972556 0.316699
0.994966 1.049063 0.336462
0.992577 0.963798 0.248070
32.734554 34.303730 2.156082
3.769921 2.924230 -1.788701
3.662736 3.157325 -1.790249
5.938936 7.083073 -1.694883
5.797332 7.682260 -1.681230
3.489498 3.457963 -1.775473
3.380561 3.717070 -1.762662
3.121032 2.957915 -1.785885
3.019664 3.177513 -1.783208
3.197362 4.032474 -1.758165
3.049954 4.270175 -1.734240
2.837850 3.433451 -1.769010
2.739191 3.690169 -1.766814
5.148157 4.016716 -1.754093
5.076390 4.391690 -1.742797
4.478513 3.323533 -1.773247
4.323227 3.576151 -1.759102
4.844828 4.782843 -1.723255
4.804122 5.267801 -1.740252
4.155014 3.928884 -1.750241
4.062807 4.273053 -1.750643
4.593328 5.729603 -1.720204
4.468383 6.199987 -1.716356
3.867702 4.638947 -1.737846
3.720521 4.956084 -1.722634
8.004430 6.240658 -1.690653
8.034873 6.997396 -1.682766
6.430541 4.805819 -1.726413
6.363731 5.297671 -1.720234
7.796521 7.676044 -1.654290
7.222428 7.870313 -1.499017
6.198322 5.851201 -1.711568
6.113298 6.420110 -1.705472
9.833781 7.616013 -1.592421
9.144766 7.912004 -1.466091
0.920722 1.117365 0.273862
0.889156 1.125866 0.285007
8.171656 7.977506 -1.286802
7.410503 8.027669 -1.110954
7.490743 7.018937 -1.678705
7.335302 7.640790 -1.649255
6.888846 8.440416 -1.010150
6.272932 8.557446 -0.892160
6.667838 7.852931 -1.495913
6.369949 8.332184 -1.435728
30.086933 23.273327 -1.349902
27.611784 23.961052 -0.931329
15.163231 11.251330 -1.578768
15.780190 13.112971 -1.521168
26.469542 25.688709 -0.617984
23.740755 25.790134 -0.255197
15.740540 14.697191 -1.440638
16.086765 16.779934 -1.349435
21.242903 25.908138 0.038606
6.170931 8.403527 0.256147
18.277082 21.404203 -1.420461
18.092653 23.713057 -1.311192
1.060654 0.847872 0.291486
59.381645 51.384052 6.244003
1.146343 0.880172 0.226642
44.844307 37.257298 1.532888
55.297737 53.607513 6.709885
0.998256 1.045932 0.336462
0.995600 0.960675 0.248070
32.898872 34.259853 2.159455
3.779089 2.912372 -1.788701
3.676840 3.149442 -1.792505
5.962427 7.065876 -1.695274
5.819069 7.660875 -1.680483
3.503007 3.449579 -1.776946
3.388462 3.702281 -1.760509
3.142295 2.959249 -1.793365
3.038409 3.177300 -1.788924
3.200608 4.010745 -1.752556
3.066625 4.265170 -1.736283
2.850983 3.427324 -1.770610
2.743109 3.671171 -1.761367
5.157707 3.998184 -1.752969
5.093069 4.378241 -1.743887
4.491983 3.311676 -1.774559
4.332984 3.561344 -1.758453
4.859828 4.767601 -1.723255
4.807630 5.238397 -1.735111
4.178440 3.926152 -1.755319
4.081446 4.265790 -1.753112
4.617414 5.722664 -1.722678
4.484430 6.181191 -1.714930
3.884721 4.629687 -1.739046
3.737220 4.945903 -1.723215
8.028671 6.219086 -1.691722
8.062764 6.977294 -1.684120
6.447172 4.786749 -1.726869
6.380342 5.277654 -1.720234
7.827664 7.658398 -1.655914
7.247117 7.847586 -1.499017
6.226677 5.841028 -1.714556
6.141539 6.409378 -1.707931
9.922070 7.634431 -1.604240
9.198063 7.907834 -1.471334
0.924227 1.114467 0.273862
0.892688 1.123067 0.285007
8.203806 7.958684 -1.288108
7.423554 7.991230 -1.108782
7.518525 7.000716 -1.680163
7.361997 7.620549 -1.649951
6.897614 8.397274 -1.007019
6.651746 9.017146 -0.954236
6.710469 7.852898 -1.500517
6.402097 8.319976 -1.437288
30.228060 23.231010 -1.353425
27.765593 23.942133 -0.934571
15.185663 11.194206 -1.577256
15.838193 13.077315 -1.523021
26.673967 25.724714 -0.621836
22.666039 24.466085 -0.232731
15.795410 14.655799 -1.441557
16.128325 16.717817 -1.348363
21.385347 25.915276 0.038124
6.213886 8.406657 0.256281
18.358561 21.363325 -1.421734
18.218094 23.722683 -1.315472
1.063312 0.844536 0.291486
59.526131 51.182941 6.242315
1.149102 0.876567 0.226642
44.589642 36.809303 1.521912
55.547695 53.512318 6.719485
1.001537 1.042791 0.336462
0.998612 0.957543 0.248070
1.020982 1.020276 0.263205
3.792644 2.903836 -1.790983
3.685310 3.136667 -1.791752
5.987141 7.050094 -1.696057
5.845484 7.645684 -1.681230
3.509818 3.434677 -1.774736
3.415166 3.708174 -1.769122
3.155583 2.953068 -1.795858
3.049633 3.169063 -1.789741
3.220274 4.009397 -1.756763
3.097527 4.279974 -1.747182
2.859366 3.415554 -1.769010
2.756826 3.665493 -1.762923
5.162615 3.976137 -1.750158
5.106798 4.362220 -1.743887
4.496246 3.293111 -1.771933
4.348529 3.551325 -1.760399
4.876167 4.753650 -1.723787
4.818838 5.217569 -1.733055
4.183792 3.906566 -1.752145
4.089572 4.247443 -1.750643
4.636595 5.709630 -1.723173
4.508388 6.173363 -1.716831
3.890584 4.607293 -1.734846
3.753890 4.935667 -1.723797
8.057544 6.201012 -1.693861
8.083152 6.950642 -1.683782
6.470032 4.772226 -1.729148
6.398392 5.258828 -1.720675
7.823319 7.606324 -1.649419
7.286496 7.840744 -1.502364
6.236394 5.813471 -1.711995
6.156223 6.384401 -1.706291
9.957028 7.611615 -1.606258
9.236388 7.890508 -1.473818
0.927724 1.111558 0.273862
0.896212 1.120257 0.285007
8.264534 7.967196 -1.294640
7.574391 8.103053 -1.131223
7.537586 6.974399 -1.679434
7.383161 7.594553 -1.649255
6.978568 8.441302 -1.016637
6.739149 9.076198 -0.964616
6.750586 7.849689 -1.504464
6.505372 8.399974 -1.457255
30.356508 23.178345 -1.356292
27.836113 23.850889 -0.934384
15.217541 11.144100 -1.576877
15.899201 13.043954 -1.525212
26.829763 25.712683 -0.624165
22.697824 24.346458 -0.231860
15.866323 14.629057 -1.444160
16.211308 16.698601 -1.351311
21.498625 25.886410 0.037873
19.246557 25.959019 0.360948
18.394201 21.269333 -1.418956
18.226635 23.579941 -1.309969
1.065960 0.841192 0.291486
59.801815 51.094189 6.253977
1.151850 0.872953 0.226642
45.014137 36.922798 1.531021
0.969485 0.963463 0.316699
1.004808 1.039640 0.336462
1.001616 0.954401 0.248070
1.024182 1.017064 0.263205
3.795834 2.887460 -1.787941
3.690919 3.121462 -1.789496
6.011817 7.034226 -1.696840
5.870667 7.628843 -1.681603
3.529970 3.432659 -1.779893
3.426798 3.697428 -1.769122
3.159486 2.938217 -1.792534
3.050737 3.150234 -1.784025
3.232853 3.999261 -1.756763
3.110957 4.270223 -1.747182
2.868893 3.405160 -1.768209
2.760602 3.646488 -1.757476
5.191898 3.972662 -1.756342
5.123400 4.348658 -1.744976
4.506569 3.278970 -1.771933
4.368446 3.544841 -1.764291
4.888297 4.735637 -1.722722
4.852242 5.220872 -1.739738
4.203025 3.899822 -1.755319
4.100261 4.231832 -1.749409
4.648352 5.687557 -1.720699
4.535776 6.170155 -1.720159
3.912489 4.603740 -1.738446
3.771690 4.926899 -1.724959
8.087950 6.184009 -1.696356
8.088496 6.911090 -1.680058
6.478694 4.747295 -1.727325
6.411867 5.236225 -1.719793
7.877048 7.610435 -1.656239
7.333984 7.842416 -1.507537
6.260376 5.799145 -1.713703
6.177609 6.366440 -1.706701
9.984050 7.582681 -1.606835
9.292789 7.888438 -1.479614
36.298458 41.711098 2.898158
0.899727 1.117436 0.285007
8.331139 7.980876 -1.302217
7.548249 8.024140 -1.122054
7.569618 6.959973 -1.681985
7.412481 7.576962 -1.650647
6.947690 8.350720 -1.006572
6.718957 8.989538 -0.956104
6.790753 7.846303 -1.508411
6.411872 8.224948 -1.426369
30.465820 23.110607 -1.358177
27.673611 23.560982 -0.924657
15.260537 11.102077 -1.577823
15.941651 12.995197 -1.525380
26.993002 25.706800 -0.626718
24.178265 25.773954 -0.258972
15.923983 14.589896 -1.445384
16.265085 16.649014 -1.351445
21.620930 25.867805 0.037551
19.343557 25.919270 0.361073
18.359896 21.095560 -1.410044
18.287155 23.505203 -1.308848
1.068597 0.837839 0.291486
60.241680 51.143604 6.282209
1.154587 0.869329 0.226642
45.066395 36.729366 1.529153
56.245361 53.506893 6.761758
1.008069 1.036478 0.336462
1.004609 0.951249 0.248070
1.027372 1.013841 0.263205
3.806369 2.876627 -1.788701
3.707770 3.115849 -1.793257
6.032605 7.013821 -1.696449
5.892209 7.607248 -1.680856
3.535362 3.416412 -1.776946
3.421938 3.668811 -1.759791
3.171388 2.930729 -1.794196
3.065686 3.145893 -1.787291
3.240645 3.983296 -1.753958
3.098953 4.225426 -1.731515
2.883157 3.400302 -1.770610
2.780911 3.649571 -1.763701
5.192093 3.947087 -1.751844
5.131173 4.327554 -1.742797
4.509168 3.259298 -1.768651
4.370758 3.523932 -1.760399
4.904545 4.721587 -1.723255
4.855471 5.191438 -1.734597
4.205455 3.877643 -1.750876
4.121468 4.227135 -1.753112
4.672379 5.680385 -1.723173
4.541336 6.137087 -1.714454
3.923196 4.587091 -1.736646
3.782505 4.908941 -1.722634
8.094777 6.149075 -1.693505
8.126665 6.899717 -1.683782
6.491999 4.725775 -1.726869
6.437352 5.223457 -1.722440
7.902348 7.587013 -1.656564
7.376153 7.838090 -1.511493
6.277123 5.778128 -1.713275
6.194853 6.344190 -1.705881
9.996744 7.542959 -1.604817
9.322059 7.863049 -1.480442
36.061920 41.177757 2.870995
0.903233 1.114604 0.285007
8.399346 7.995583 -1.310054
7.532576 7.957038 -1.114815
7.588535 6.933515 -1.681256
7.443139 7.560675 -1.652387
7.041706 8.409453 -1.018427
6.722127 8.934948 -0.951744
6.830962 7.842744 -1.512357
6.451050 8.221894 -1.429801
30.563820 23.034016 -1.359488
28.862438 24.418528 -0.970234
15.301799 11.058740 -1.578579
15.997864 12.957616 -1.527065
27.162273 25.705652 -0.629450
24.324957 25.767727 -0.260240
15.984501 14.553209 -1.446915
16.342461 16.623478 -1.353858
21.704662 25.802818 0.037531
19.474081 25.923979 0.361465
18.379982 20.985252 -1.405993
18.376896 23.468100 -1.310173
1.071224 0.834478 0.291486
1.091936 0.887728 0.309900
1.157313 0.865698 0.226642
44.751286 36.238865 1.516539
55.974228 52.915260 6.710727
1.011320 1.033306 0.336462
1.007593 0.948089 0.248070
1.030552 1.010608 0.263205
3.816872 2.865758 -1.789462
3.718956 3.105382 -1.794008
6.063622 7.005190 -1.699188
5.925709 7.601124 -1.683845
3.546077 3.405289 -1.776946
3.448691 3.674455 -1.768405
3.165760 2.907306 -1.785054
3.079365 3.140181 -1.789741
3.251948 3.971653 -1.753257
3.123305 4.230853 -1.738327
2.892627 3.389842 -1.769810
2.792363 3.640817 -1.763701
5.230583 3.950318 -1.761403
5.157974 4.322590 -1.747700
4.530163 3.252779 -1.773247
4.389162 3.516133 -1.763642
4.922151 4.708812 -1.724320
4.884951 5.190282 -1.739738
4.219020 3.865687 -1.751511
4.130748 4.210076 -1.751260
4.691442 5.667167 -1.723668
4.575610 6.143096 -1.720634
3.938837 4.576185 -1.737246
3.803739 4.904620 -1.725541
8.128221 6.134249 -1.696713
8.145292 6.871604 -1.683105
6.509976 4.707630 -1.727781
6.449185 5.199522 -1.721116
7.939022 7.574380 -1.659487
7.422432 7.837897 -1.516362
6.296691 5.759696 -1.713703
6.221592 6.331699 -1.707931
10.071145 7.549400 -1.614042
9.336106 7.824795 -1.478510
36.076126 40.933937 2.862525
0.906730 1.111761 0.285007
8.463397 8.005862 -1.317109
7.550704 7.926131 -1.113608
7.621953 6.920187 -1.684172
7.465470 7.535853 -1.652039
7.089921 8.413076 -1.022229
6.714247 8.866130 -0.945516
6.867301 7.834569 -1.515317
6.489052 8.217123 -1.432920
30.794468 23.056349 -1.367599
28.914536 24.307140 -0.969237
15.339702 11.012933 -1.578957
16.058655 12.923564 -1.529255
27.317225 25.690006 -0.631734
24.466339 25.755022 -0.261401
16.047903 14.518958 -1.448753
16.391794 16.569216 -1.353590
0.801498 0.985503 0.200556
19.595186 25.915348 0.361781
18.382376 20.855570 -1.400438
18.506104 23.480894 -1.314759
1.073840 0.831108 0.291486
1.094719 0.884293 0.309900
1.160026 0.862058 0.226642
1.127470 0.874613 0.237483
0.978522 0.954283 0.316699
1.014561 1.030124 0.336462
42.757183 38.534348 2.021327
1.033722 1.007366 0.263205
3.819901 2.849362 -1.786420
3.725853 3.091302 -1.792505
6.090768 6.992008 -1.700753
5.938680 7.568530 -1.680483
3.559460 3.396685 -1.778420
3.451295 3.654058 -1.763380
3.191090 2.911964 -1.795027
3.086665 3.127877 -1.788107
3.270401 3.968616 -1.756763
3.145494 4.233140 -1.743776
2.900857 3.377971 -1.768209
2.800433 3.627632 -1.761367
5.244506 3.935013 -1.761965
5.165631 4.301415 -1.745521
4.549617 3.245071 -1.777186
4.397235 3.499957 -1.762345
4.936919 4.693326 -1.724320
4.887992 5.160829 -1.734597
4.231143 3.852414 -1.751511
4.145284 4.198438 -1.751877
4.706730 5.649433 -1.722678
4.578645 6.106875 -1.713979
3.956959 4.568098 -1.739046
3.817957 4.891134 -1.724959
8.163224 6.120449 -1.700278
8.162315 6.842172 -1.682089
6.527903 4.689418 -1.728692
6.460932 5.175564 -1.719793
7.971389 7.557529 -1.661435
7.466061 7.834621 -1.520622
6.322001 5.746434 -1.715837
6.233218 6.303748 -1.705472
10.129789 7.543653 -1.620384
9.365202 7.799237 -1.479338
36.691280 41.368641 2.898255
0.910218 1.108907 0.285007
8.487062 7.977877 -1.316847
7.592015 7.919607 -1.116504
7.643657 6.896205 -1.684172
7.496046 7.519352 -1.653780
7.106008 8.378658 -1.020440
6.696387 8.784767 -0.937627
6.910204 7.833621 -1.519922
6.531992 8.218389 -1.437288
31.028784 23.079834 -1.375875
29.179356 24.373932 -0.976906
15.382339 10.970452 -1.579903
16.122501 12.891746 -1.531782
27.479668 25.680452 -0.634242
24.614794 25.748907 -0.262695
16.117193 14.489766 -1.451202
16.477524 16.551613 -1.356807
22.029928 25.857626 0.036265
19.724909 25.917355 0.362164
18.345684 20.682795 -1.391526
18.641785 23.500935 -1.319854
1.076446 0.827730 0.291486
1.097492 0.880849 0.309900
1.162729 0.858409 0.226642
1.130213 0.871067 0.237483
56.404697 52.654961 6.722179
1.017793 1.026931 0.336462
43.579712 39.027626 2.051048
1.036881 1.004113 0.263205
3.831819 2.839533 -1.787941
3.734124 3.078394 -1.791752
6.112707 6.972837 -1.700753
5.976991 7.568376 -1.684965
3.563335 3.379124 -1.774736
3.469153 3.649994 -1.766969
3.188029 2.890999 -1.787547
3.101592 3.123376 -1.791374
3.284056 3.959757 -1.757464
3.148708 4.209634 -1.737646
2.913869 3.371599 -1.769810
2.819672 3.629045 -1.766814
5.235236 3.902542 -1.754093
5.189466 4.293793 -1.749335
4.548964 3.223166 -1.772590
4.415603 3.492026 -1.765588
4.947421 4.673836 -1.722722
4.905510 5.146850 -1.735111
4.250286 3.845432 -1.754684
4.155784 4.182683 -1.750643
4.728208 5.639059 -1.724163
4.607129 6.104897 -1.717782
3.966253 4.549914 -1.736646
3.834481 4.880623 -1.725541
8.177671 6.091258 -1.699208
8.192842 6.824085 -1.684120
6.544193 4.670012 -1.729148
6.484772 5.161336 -1.721999
7.982138 7.520298 -1.658512
7.509746 7.831146 -1.524883
6.342933 5.729154 -1.716692
6.265383 6.296658 -1.709160
10.166186 7.521180 -1.622690
9.409465 7.786233 -1.482926
36.164932 40.518734 2.850258
0.913698 1.106041 0.285007
8.573071 8.007885 -1.327821
7.681487 7.963026 -1.127845
7.669690 6.876084 -1.685265
7.497369 7.473461 -1.648210
7.057255 8.268789 -1.007466
6.727577 8.768428 -0.938250
6.953169 7.832479 -1.524526
6.562701 8.204007 -1.438536
31.171890 23.034435 -1.379480
29.195837 24.232302 -0.974474
15.411853 10.918623 -1.579336
16.184752 12.858409 -1.534141
27.646719 25.674204 -0.636885
24.763460 25.742113 -0.263988
16.187948 14.461612 -1.453805
16.525215 16.495525 -1.356405
22.163183 25.848978 0.035863
19.846336 25.907677 0.362480
18.305426 20.507475 -1.382382
18.769058 23.509411 -1.324236
1.079041 0.824344 0.291486
1.100254 0.877397 0.309900
1.165420 0.854752 0.226642
1.132944 0.867511 0.237483
56.641464 52.543869 6.730432
1.021014 1.023728 0.336462
43.918728 39.083111 2.060198
1.040031 1.000850 0.263205
3.842216 2.828568 -1.788701
3.746632 3.069011 -1.793257
6.137187 6.956531 -1.701536
5.997087 7.544936 -1.683845
3.569854 3.364107 -1.772526
3.479320 3.637721 -1.766251
3.212043 2.894274 -1.796690
3.108824 3.111017 -1.789741
3.297689 3.950850 -1.758165
3.167536 4.207259 -1.741051
2.932924 3.372059 -1.775412
2.822046 3.608506 -1.760589
5.261394 3.896299 -1.759154
5.186631 4.263961 -1.743342
4.565269 3.213178 -1.775216
4.423589 3.475784 -1.764291
4.960670 4.656954 -1.722190
4.921657 5.131412 -1.735111
4.266596 3.835844 -1.756588
4.171584 4.172308 -1.751877
4.752176 5.631558 -1.726637
4.625117 6.088840 -1.717307
3.986850 4.544572 -1.739645
3.849796 4.868552 -1.725541
8.192014 6.062034 -1.698139
8.211211 6.795789 -1.683443
6.554057 4.646064 -1.727781
6.497905 5.138507 -1.721116
7.997063 7.487110 -1.656564
7.552113 7.826046 -1.528839
6.362361 5.710498 -1.717119
6.274087 6.265842 -1.705881
10.200942 7.497389 -1.624708
9.432351 7.755375 -1.482650
36.389542 40.513374 2.857365
0.917168 1.103166 0.285007
8.606921 7.988988 -1.329388
7.796134 8.031665 -1.143530
7.692724 6.853261 -1.685629
7.513832 7.442925 -1.646470
7.093583 8.258615 -1.009256
6.797512 8.802454 -0.945516
6.997510 7.832617 -1.529460
6.581030 8.174102 -1.436664
31.240873 22.934034 -1.379316
29.310349 24.172289 -0.976033
15.449336 10.872443 -1.579714
16.246943 12.824821 -1.536500
27.809572 25.663107 -0.639393
24.913696 25.736092 -0.265308
16.254198 14.429198 -1.455948
16.601009 16.467451 -1.358683
22.307047 25.851862 0.035381
19.969103 25.899090 0.362806
18.288282 20.359341 -1.375322
19.021536 23.673149 -1.338808
1.081626 0.820950 0.291486
1.103005 0.873936 0.309900
1.168100 0.851087 0.226642
1.135663 0.863948 0.237483
56.864876 52.419693 6.737169
1.024225 1.020516 0.336462
43.251804 38.247444 2.026943
1.043170 0.997578 0.263205
3.849585 2.815400 -1.787941
3.753393 3.054871 -1.791752
6.156397 6.934292 -1.700753
6.024427 7.530671 -1.684965
3.588589 3.360459 -1.776946
3.492018 3.628125 -1.766969
3.214306 2.878143 -1.792534
3.122443 3.105122 -1.792191
3.316144 3.947612 -1.761670
3.169454 4.182246 -1.734240
2.937427 3.355969 -1.771411
2.840156 3.608348 -1.765258
5.278260 3.883146 -1.760841
5.202972 4.250093 -1.744431
4.562913 3.190219 -1.769964
4.432999 3.460700 -1.763642
4.983763 4.649206 -1.725384
4.941764 5.120113 -1.736653
4.281465 3.824936 -1.757857
4.187356 4.161877 -1.753112
4.767325 5.613657 -1.725647
4.641872 6.071187 -1.716356
3.996031 4.526327 -1.737246
3.860330 4.850425 -1.723215
8.217371 6.040917 -1.699565
8.240116 6.776240 -1.685135
6.568619 4.625452 -1.727781
6.509424 5.114439 -1.719793
8.016200 7.457930 -1.655589
7.602760 7.829289 -1.534620
6.378806 5.689188 -1.716692
6.302052 6.254401 -1.708340
10.219643 7.461816 -1.623843
9.470448 7.737014 -1.485134
36.903957 40.826958 2.885501
0.920629 1.100279 0.285007
8.643660 7.972641 -1.331478
7.835166 8.021368 -1.145943
7.721593 6.835560 -1.687452
7.545575 7.427595 -1.648558
7.182049 8.308313 -1.019992
6.738719 8.669345 -0.930775
7.047209 7.838408 -1.535709
6.628994 8.181070 -1.442280
31.273996 22.807550 -1.377349
29.214607 23.939337 -0.969112
15.480147 10.821579 -1.579336
16.298117 12.782339 -1.537679
27.980001 25.657991 -0.642125
25.062748 25.727940 -0.266602
16.318905 14.395190 -1.457938
16.651237 16.413818 -1.358549
22.440645 25.842024 0.034979
20.094461 25.893145 0.363151
18.248940 20.187838 -1.366410
19.122156 23.645918 -1.340948
1.084199 0.817549 0.291486
1.105745 0.870467 0.309900
1.170767 0.847413 0.226642
1.138372 0.860376 0.237483
0.990437 0.941911 0.316699
1.027426 1.017293 0.336462
43.026226 37.808052 2.012430
1.046299 0.994296 0.263205
3.858410 2.803293 -1.787941
3.762970 3.043065 -1.791752
6.180772 6.917836 -1.701536
6.046827 7.510177 -1.684592
3.604599 3.354207 -1.779893
3.491772 3.605009 -1.760509
3.230163 2.874036 -1.796690
3.127018 3.090133 -1.788924
3.320013 3.927205 -1.756763
3.189375 4.181273 -1.738327
2.952832 3.352198 -1.774612
2.846934 3.593606 -1.762145
5.274891 3.855282 -1.755218
5.214808 4.232509 -1.743887
4.580696 3.181221 -1.773247
4.440870 3.444424 -1.762345
4.989830 4.625696 -1.722190
4.956482 5.103172 -1.736139
4.293459 3.811468 -1.757857
4.200410 4.148702 -1.753112
4.789992 5.604528 -1.727626
4.662100 6.058119 -1.716831
4.012777 4.516593 -1.738446
3.881498 4.845767 -1.726122
8.233122 6.012760 -1.698852
8.261362 6.750321 -1.685135
6.586317 4.607018 -1.728692
6.523924 5.092760 -1.719352
8.035232 7.428703 -1.654615
7.646613 7.825208 -1.538881
6.395180 5.667830 -1.716265
6.317499 6.230436 -1.707111
10.249451 7.434309 -1.624996
9.523878 7.731006 -1.490377
36.822224 40.480400 2.870313
0.924081 1.097381 0.285007
