ply
format ascii 1.0
element vertex 1593
property float x
property float y
property float z
end_header
-66.484612 -11.496131 2.981819
-4.775498 -0.104991 -1.790983
-4.841087 -0.357457 -1.797769
-9.246390 -2.215894 -1.747714
-9.849385 -2.904457 -1.803757
-4.882681 -0.703492 -1.783576
-4.974903 -0.982999 -1.780607
-1.998876 -0.256620 -0.741979
-2.025618 -0.340195 -0.741229
-5.042214 -1.355288 -1.786209
-5.121463 -1.657248 -1.783284
-4.365250 -1.078846 -1.787417
-4.459448 -1.353032 -1.794048
-6.575704 -0.163069 -1.768150
-6.798828 -0.514456 -1.772764
-5.603449 -0.003727 -1.782438
-5.630972 -0.300895 -1.768831
-6.847104 -0.972991 -1.753071
-7.090959 -1.391020 -1.765955
-5.747214 -0.690865 -1.773725
-5.901961 -1.030996 -1.781502
-7.264974 -1.910932 -1.763252
-7.375749 -2.351336 -1.740600
-5.988211 -1.452643 -1.776237
-6.073723 -1.807175 -1.765071
-10.463445 -0.255239 -1.748043
-10.989076 -0.868061 -1.746066
-8.134974 -0.032644 -1.751484
-8.395554 -0.475182 -1.749345
-11.356177 -1.597553 -1.741006
-11.953367 -2.309459 -1.728766
-8.632548 -1.030361 -1.748717
-8.917233 -1.550817 -1.744403
-13.201094 -0.278809 -1.703986
-13.705028 -1.040346 -1.696262
-68.971581 -15.876645 3.652686
-1.384707 -0.375178 0.285007
-14.302314 -1.944927 -1.683925
-15.712893 -2.995261 -1.727250
-10.547110 -1.218994 -1.743939
-10.875514 -1.846129 -1.726875
-17.826935 -4.505565 -1.853429
-18.306517 -5.694789 -1.785724
-11.620592 -2.705484 -1.767579
-12.099071 -3.488978 -1.767995
-1.293842 -0.051844 0.156616
-57.221489 -4.428771 -1.581125
-19.534689 -0.011351 -1.640788
-21.394987 -1.191999 -1.598164
-63.220737 -8.418923 -1.220381
-92.677605 -17.773111 -1.038178
-23.675909 -2.693393 -1.616701
-27.285469 -4.653440 -1.647252
-1.225617 -0.333887 0.200556
-1.363391 -0.397730 0.213030
-29.753937 -6.848344 -1.558772
-32.928989 -9.519079 -1.538232
-1.356983 -0.049720 0.291486
-1.404941 -0.080777 0.309900
-1.445060 -0.024653 0.226642
-1.425917 -0.053826 0.237483
-1.351291 -0.205364 0.316699
-67.252953 -12.834855 6.630601
-68.790535 -7.694147 2.389395
-66.737106 -11.324045 2.990870
-4.781354 -0.090060 -1.793264
-4.842187 -0.342245 -1.797769
-9.255217 -2.187277 -1.748106
-9.843382 -2.869060 -1.800769
-4.875655 -0.686899 -1.779893
-4.961491 -0.964074 -1.774147
-1.999672 -0.250339 -0.741979
-2.053639 -0.338622 -0.753478
-5.051886 -1.340854 -1.788313
-5.128434 -1.641731 -1.783965
-4.359703 -1.063006 -1.783415
-4.439013 -1.331466 -1.783154
-6.597293 -0.142782 -1.774335
-6.788899 -0.492214 -1.769495
-5.605321 0.013892 -1.783094
-5.637557 -0.283513 -1.770777
-6.852038 -0.951732 -1.753603
-7.085813 -1.366870 -1.763384
-5.734279 -0.671109 -1.768647
-5.890182 -1.009810 -1.776565
-7.265310 -1.886655 -1.761767
-7.383100 -2.328151 -1.740600
-5.994603 -1.434257 -1.776837
-6.084872 -1.789726 -1.766815
-10.466165 -0.222400 -1.748400
-10.999609 -0.834145 -1.747420
-8.138931 -0.007076 -1.752396
-8.395058 -0.448692 -1.748904
-11.361140 -1.561865 -1.741006
-11.937271 -2.267416 -1.725114
-8.635743 -1.003234 -1.748717
-8.918204 -1.522122 -1.743583
-13.209821 -0.237465 -1.705139
-13.720080 -0.998173 -1.697918
-69.052284 -15.666960 3.654243
-1.385878 -0.370826 0.285007
-14.306388 -1.899730 -1.683664
-15.667601 -2.935560 -1.720493
-10.554797 -1.186285 -1.744668
-10.887085 -1.812940 -1.727919
-17.821711 -4.444759 -1.851192
-18.388931 -5.657227 -1.792783
-11.717525 -2.689073 -1.782708
-12.113770 -3.452044 -1.768619
-1.293998 -0.047779 0.156616
-56.758682 -4.213408 -1.566224
-19.552547 0.050085 -1.642489
-21.412556 -1.125532 -1.599344
-1.272500 -0.191078 0.179419
-1.369234 -0.232057 0.189211
-23.507830 -2.599689 -1.603075
-27.211405 -4.552801 -1.641221
-1.226659 -0.330035 0.200556
-1.364634 -0.393445 0.213030
-29.792831 -6.758802 -1.559813
-33.047054 -9.440895 -1.542919
-1.357132 -0.045457 0.291486
-1.405188 -0.076363 0.309900
-1.445130 -0.020113 0.226642
-1.426080 -0.049347 0.237483
-1.351930 -0.201118 0.316699
-67.195099 -12.605131 6.621251
-70.126053 -7.620051 2.431041
-67.489822 -11.234049 3.020819
-4.785313 -0.075078 -1.794785
-4.839541 -0.326763 -1.796265
-9.273512 -2.160831 -1.750454
-9.856119 -2.839221 -1.801516
-4.892535 -0.673531 -1.785786
-4.979149 -0.951362 -1.779890
-1.993215 -0.243268 -0.738654
-2.036708 -0.329030 -0.745312
-5.054258 -1.324512 -1.787611
-5.126406 -1.623307 -1.781240
-4.366589 -1.050142 -1.785016
-4.459044 -1.322318 -1.790158
-6.580437 -0.121805 -1.769274
-6.792331 -0.471025 -1.770039
-5.597693 0.031423 -1.780468
-5.647867 -0.266290 -1.774020
-6.853082 -0.929950 -1.753071
-7.091969 -1.344970 -1.763898
-5.753326 -0.654946 -1.774360
-5.897076 -0.991949 -1.777799
-7.273080 -1.864297 -1.762262
-7.420020 -2.314301 -1.748207
-5.997220 -1.414989 -1.776237
-6.083123 -1.768435 -1.764490
-10.464843 -0.189490 -1.748043
-11.006105 -0.799882 -1.748097
-8.131123 0.018449 -1.750572
-8.398374 -0.422421 -1.749345
-11.375774 -1.527458 -1.742630
-11.969585 -2.234675 -1.729070
-8.644679 -0.976741 -1.749998
-8.926803 -1.494757 -1.744403
-13.200606 -0.195839 -1.703697
-13.721170 -0.954927 -1.697642
-1.407175 -0.340720 0.273862
-1.387037 -0.366471 0.285007
-14.316218 -1.855282 -1.684186
-15.700169 -2.890679 -1.723389
-10.560427 -1.153332 -1.745032
-10.881068 -1.776798 -1.725831
-17.721684 -4.360895 -1.837995
-18.406612 -5.599432 -1.792783
-11.708590 -2.648371 -1.779748
-12.103648 -3.408039 -1.765187
-1.294142 -0.043714 0.156616
-56.572243 -4.020821 -1.559989
-19.558268 0.111549 -1.643057
-21.413996 -1.058161 -1.599175
-1.273094 -0.187080 0.179419
-92.716652 -17.177355 -1.037228
-23.269991 -2.499692 -1.584091
-27.270855 -4.474771 -1.644303
-1.227690 -0.326180 0.200556
-1.365863 -0.389156 0.213030
-30.004910 -6.707706 -1.571156
-33.053486 -9.330504 -1.541697
-1.357268 -0.041193 0.291486
-1.405421 -0.071948 0.309900
-1.445186 -0.015573 0.226642
-1.426227 -0.044866 0.237483
-1.352554 -0.196870 0.316699
-67.122742 -12.373364 6.610592
-71.475677 -7.539103 2.473129
-65.978661 -10.769008 2.956313
-4.785525 -0.060045 -1.794785
-4.855335 -0.312590 -1.802281
-9.268776 -2.129086 -1.748106
-9.872545 -2.810416 -1.803010
-4.883562 -0.656729 -1.781366
-4.976615 -0.934654 -1.777736
-1.997587 -0.237388 -0.740316
-2.052128 -0.325096 -0.751845
-5.056579 -1.308168 -1.786910
-5.131480 -1.607195 -1.781240
-4.369866 -1.036420 -1.785016
-4.445525 -1.303022 -1.782377
-6.590383 -0.101242 -1.772086
-6.788017 -0.449282 -1.768405
-5.599456 0.049033 -1.781125
-5.639227 -0.248088 -1.770777
-6.846409 -0.907187 -1.750409
-7.088564 -1.321241 -1.761842
-5.744039 -0.635669 -1.770551
-5.894536 -0.972466 -1.775948
-7.280781 -1.841909 -1.762757
-7.455070 -2.299662 -1.755337
-6.003495 -1.396566 -1.776837
-6.088648 -1.749317 -1.764490
-10.459484 -0.156541 -1.746974
-11.004633 -0.765021 -1.747420
-8.132974 0.044009 -1.751028
-8.397711 -0.395939 -1.748904
-11.384431 -1.492219 -1.743280
-11.957110 -2.193455 -1.726027
-8.647704 -0.949580 -1.749998
-8.925661 -1.465739 -1.743173
-13.194960 -0.175031 -1.702832
-13.722653 -0.933367 -1.697642
-1.407709 -0.338509 0.273862
-1.387611 -0.364291 0.285007
-14.315181 -1.832290 -1.683664
-15.780841 -2.880033 -1.732800
-10.560270 -1.136532 -1.744668
-10.891621 -1.760976 -1.727223
-17.494825 -4.276283 -1.810930
-18.360193 -5.553728 -1.786762
-11.737771 -2.635536 -1.784024
-12.135608 -3.396528 -1.769555
-1.294209 -0.041681 0.156616
-56.297314 -3.912262 -1.551198
-19.560057 0.142296 -1.643246
-21.421604 -1.024807 -1.599681
-1.273387 -0.185080 0.179419
-1.370312 -0.225602 0.189211
-23.141008 -2.449214 -1.573833
-27.214830 -4.421618 -1.640014
-1.228201 -0.324251 0.200556
-1.366472 -0.387010 0.213030
-30.095345 -6.678220 -1.575902
-32.983505 -9.254753 -1.537213
-1.357331 -0.039060 0.291486
-1.405532 -0.069740 0.309900
-1.445209 -0.013303 0.226642
-1.426296 -0.042626 0.237483
-1.352862 -0.194745 0.316699
-67.872688 -12.401663 6.680343
-71.608719 -7.439349 2.476978
-66.969955 -10.823197 2.996958
-4.778214 -0.052485 -1.791743
-4.848423 -0.304457 -1.799273
-9.277850 -2.115813 -1.749280
-9.871280 -2.793282 -1.801890
-4.890121 -0.649761 -1.783576
-4.978077 -0.926833 -1.777736
-1.994339 -0.233872 -0.738654
-1.978836 -0.309351 -0.718364
-5.049545 -1.297935 -1.783405
-5.135792 -1.599699 -1.781922
-4.364344 -1.027913 -1.781815
-4.472290 -1.303391 -1.793270
-6.598210 -0.090963 -1.774335
-6.788715 -0.438616 -1.768405
-5.612595 0.058028 -1.785720
-5.643390 -0.239405 -1.772074
-6.847826 -0.896429 -1.750409
-7.100128 -1.311892 -1.764413
-5.745031 -0.626643 -1.770551
-5.896056 -0.963203 -1.775948
-7.285547 -1.830933 -1.763252
-7.453108 -2.286218 -1.753911
-6.007543 -1.387554 -1.777437
-6.093227 -1.740281 -1.765071
-10.465619 -0.140171 -1.748043
-10.997956 -0.747177 -1.746066
-8.127052 0.056728 -1.749660
-8.394424 -0.382554 -1.748022
-11.392635 -1.475077 -1.744254
-11.981926 -2.178600 -1.729375
-8.639469 -0.934970 -1.747863
-8.939540 -1.453631 -1.745632
-13.193466 -0.133563 -1.702544
-13.731448 -0.890650 -1.698470
-1.408765 -0.334085 0.273862
-1.388748 -0.359930 0.285007
-14.334642 -1.789005 -1.685493
-15.854281 -2.842109 -1.740763
-10.577483 -1.104749 -1.747219
-10.904876 -1.728003 -1.728615
-17.369015 -4.187964 -1.794824
-18.430889 -5.512054 -1.792575
-11.692033 -2.586834 -1.774815
-12.167150 -3.364222 -1.772987
-1.294334 -0.037615 0.156616
-56.169701 -3.726063 -1.546833
-19.565487 0.203811 -1.643813
-21.440643 -0.958240 -1.601029
-65.627838 -8.005155 -1.272693
-1.371014 -0.221296 0.189211
-23.144621 -2.376104 -1.573527
-27.116274 -4.318110 -1.632375
-1.229214 -0.320391 0.200556
-1.367682 -0.382715 0.213030
-30.215673 -6.605309 -1.581804
-32.983551 -9.143069 -1.535684
-1.357447 -0.034796 0.291486
-1.405744 -0.065324 0.309900
-1.445243 -0.008763 0.226642
-1.426423 -0.038145 0.237483
-1.353467 -0.190494 0.316699
-67.656540 -12.142563 6.656034
-1.373762 -0.163987 0.248070
-70.240295 -11.126696 3.131894
-4.772806 -0.037461 -1.789462
-4.847507 -0.289104 -1.798521
-9.278707 -2.085382 -1.748106
-9.853534 -2.754785 -1.796660
-4.893983 -0.634625 -1.784313
-4.984633 -0.911881 -1.779172
-2.005924 -0.228702 -0.743641
-2.035627 -0.312425 -0.743679
-5.060870 -1.283872 -1.786209
-5.146175 -1.585244 -1.783965
-4.372914 -1.015411 -1.784216
-4.478130 -1.289855 -1.794048
-6.588867 -0.070171 -1.771523
-6.799661 -0.417915 -1.771129
-5.599163 0.075420 -1.781125
-5.649785 -0.221925 -1.774020
-6.852521 -0.875150 -1.750941
-7.096612 -1.288173 -1.762356
-5.754519 -0.609357 -1.773090
-5.897176 -0.944368 -1.775330
-7.287498 -1.807118 -1.762262
-7.467681 -2.265074 -1.755813
-6.006287 -1.367428 -1.775638
-6.109701 -1.724295 -1.768559
-10.460105 -0.107248 -1.746974
-11.008117 -0.713152 -1.747420
-8.124887 0.082232 -1.749205
-8.387792 -0.355827 -1.746258
-11.387419 -1.438067 -1.742630
-11.975096 -2.138488 -1.727244
-8.646253 -0.908221 -1.748717
-8.940198 -1.424914 -1.744812
-13.193820 -0.092114 -1.702544
-13.728248 -0.847129 -1.697642
-69.126633 -14.886603 3.649570
-1.389872 -0.355565 0.285007
-14.332316 -1.743018 -1.684448
-15.855313 -2.790897 -1.739798
-10.576986 -1.071126 -1.746490
-10.912196 -1.694042 -1.728963
-17.443981 -4.148000 -1.801982
-18.480532 -5.463756 -1.796105
-11.642249 -2.537611 -1.764948
-12.189086 -3.329128 -1.774859
-1.294446 -0.033548 0.156616
-55.083885 -3.479746 -1.512542
-19.566740 0.265308 -1.644002
-21.463459 -0.891727 -1.602714
-66.345634 -7.880979 -1.288324
-1.371703 -0.216988 0.189211
-23.157927 -2.303966 -1.573986
-27.113937 -4.230422 -1.631302
-1.230214 -0.316528 0.200556
-1.368877 -0.378417 0.213030
-30.171850 -6.496535 -1.577985
-32.906174 -9.010306 -1.530079
-1.357550 -0.030532 0.291486
-1.405942 -0.060908 0.309900
-1.445264 -0.004222 0.226642
-1.426536 -0.033663 0.237483
-1.354059 -0.186241 0.316699
-67.859070 -11.959043 6.671741
-1.374271 -0.159671 0.248070
-70.191978 -10.893071 3.128438
-4.782149 -0.022459 -1.793264
-4.839142 -0.273301 -1.794761
-9.290961 -2.057478 -1.749280
-9.854568 -2.721703 -1.795165
-4.892262 -0.618800 -1.782840
-4.980131 -0.894859 -1.776300
-2.008442 -0.222576 -0.744472
-2.029392 -0.304852 -0.740413
-5.066697 -1.268412 -1.786910
-5.152925 -1.569625 -1.784646
-4.370716 -1.000472 -1.781815
-4.459160 -1.269094 -1.783933
-6.590975 -0.049477 -1.772086
-6.795179 -0.396193 -1.769495
-5.593232 0.092890 -1.779155
-5.650454 -0.204174 -1.774020
-6.857151 -0.853848 -1.751474
-7.108230 -1.267256 -1.764413
-5.748855 -0.590535 -1.770551
-5.898236 -0.925533 -1.774713
-7.295023 -1.784668 -1.762757
-7.469184 -2.239910 -1.754387
-6.014279 -1.349371 -1.776837
-6.105882 -1.702485 -1.765653
-10.450550 -0.074340 -1.745192
-11.008334 -0.678439 -1.747081
-8.149900 0.108174 -1.755130
-8.388867 -0.329474 -1.746258
-11.397760 -1.402995 -1.743604
-11.964238 -2.097746 -1.724506
-8.652950 -0.881438 -1.749570
-8.942698 -1.396513 -1.744403
-13.213836 -0.050703 -1.705427
-13.732819 -0.804119 -1.697918
-65.971870 -13.991737 3.490097
-1.390982 -0.351198 0.285007
-14.343631 -1.698675 -1.685232
-15.875737 -2.743123 -1.741246
-10.580299 -1.037894 -1.746490
-10.915518 -1.659454 -1.728615
-17.412403 -4.082810 -1.796837
-18.457523 -5.393903 -1.791745
-11.389651 -2.445694 -1.720547
-12.199486 -3.290820 -1.774859
-1.294544 -0.029482 0.156616
-54.875053 -3.293411 -1.505683
-19.577755 0.326988 -1.645137
-21.474119 -0.824613 -1.603387
-66.860703 -7.729046 -1.299387
-1.372378 -0.212678 0.189211
-23.174976 -2.232151 -1.574752
-27.069895 -4.136430 -1.627415
-1.231202 -0.312661 0.200556
-1.370059 -0.374115 0.213030
-30.125689 -6.387695 -1.574050
-32.934315 -8.906891 -1.530079
-1.357639 -0.026267 0.291486
-1.406127 -0.056491 0.309900
-1.445270 0.000318 0.226642
-1.426634 -0.029182 0.237483
-1.354637 -0.181986 0.316699
-1.428809 -0.221346 0.336462
-1.374766 -0.155353 0.248070
-68.993126 -10.484712 3.077097
-4.780347 -0.007444 -1.792504
-4.845527 -0.258424 -1.797017
-9.301214 -2.029107 -1.750062
-9.851705 -2.687601 -1.792924
-4.892334 -0.603211 -1.782103
-4.984754 -0.879543 -1.777018
-2.014565 -0.216780 -0.746965
-2.044761 -0.300782 -0.746945
-5.074298 -1.253370 -1.788313
-5.134458 -1.546268 -1.775791
-4.375627 -0.987129 -1.782615
-4.484375 -1.261184 -1.793270
-6.587258 -0.028771 -1.770961
-6.800231 -0.375071 -1.770584
-5.611798 0.110921 -1.785720
-5.651067 -0.186422 -1.774020
-6.857884 -0.832078 -1.750941
-7.096954 -1.242199 -1.760300
-5.739353 -0.571396 -1.766743
-5.919904 -0.909972 -1.780885
-7.298708 -1.761294 -1.762262
-7.483626 -2.218668 -1.756288
-6.012894 -1.329259 -1.775038
-6.114885 -1.684327 -1.766815
-10.452701 -0.041513 -1.745548
-10.998607 -0.643136 -1.745050
-8.133945 0.133470 -1.751484
-8.391810 -0.303196 -1.746699
-11.394271 -1.366261 -1.742305
-11.982451 -2.062188 -1.726331
-8.661512 -0.854810 -1.750852
-8.954776 -1.369619 -1.746042
-13.209972 -0.009192 -1.704851
-13.749122 -0.761761 -1.699850
-65.978355 -13.776650 3.488248
-1.392079 -0.346826 0.285007
-14.350866 -1.653825 -1.685493
-15.819699 -2.682173 -1.733282
-10.581551 -1.004466 -1.746125
-10.930413 -1.626623 -1.730356
-17.272121 -3.992943 -1.779167
-18.527868 -5.351412 -1.797558
-11.356728 -2.401417 -1.713641
-12.202132 -3.250425 -1.773611
-1.294631 -0.025414 0.156616
-54.477993 -3.097640 -1.492964
-19.586586 0.388708 -1.646082
-21.486563 -0.757503 -1.604230
-67.381424 -7.574592 -1.310584
-1.373039 -0.208365 0.189211
-23.197760 -2.160789 -1.575976
-27.043293 -4.045418 -1.624735
-1.232179 -0.308792 0.200556
-1.371228 -0.369808 0.213030
-30.169067 -6.297890 -1.575438
-32.811649 -8.763057 -1.522131
-1.357715 -0.022001 0.291486
-1.406297 -0.052073 0.309900
-1.445262 0.004859 0.226642
-1.426719 -0.024699 0.237483
-1.355202 -0.177729 0.316699
-1.429497 -0.216856 0.336462
-1.375247 -0.151033 0.248070
-67.505844 -10.041224 3.013825
-4.784045 0.007601 -1.794024
-4.844465 -0.243096 -1.796265
-9.301787 -1.998654 -1.748888
-9.861997 -2.657151 -1.793298
-4.894205 -0.587837 -1.782103
-4.993006 -0.864862 -1.779172
-1.997120 -0.208793 -0.738654
-2.038481 -0.293226 -0.743679
-5.069101 -1.235249 -1.784807
-5.142890 -1.531219 -1.777153
-4.384082 -0.974539 -1.785016
-4.490087 -1.247592 -1.794048
-6.581558 -0.008090 -1.769274
-6.786005 -0.352846 -1.766225
-5.626530 0.128968 -1.790973
-5.653515 -0.168732 -1.774668
-6.870042 -0.811623 -1.753603
-7.114148 -1.222234 -1.763898
-5.754340 -0.554575 -1.771186
-5.913334 -0.889911 -1.777799
-7.302319 -1.737912 -1.761767
-7.484972 -2.193487 -1.754862
-6.022639 -1.311555 -1.776837
-6.121992 -1.665616 -1.767397
-10.448842 -0.008679 -1.744835
-10.998605 -0.608463 -1.744712
-8.125696 0.158848 -1.749660
-8.388821 -0.276688 -1.745816
-11.410272 -1.331801 -1.744254
-11.994718 -2.025530 -1.727244
-8.662210 -0.827412 -1.750425
-8.953231 -1.340591 -1.744812
-13.194102 0.032236 -1.702544
-13.751447 -0.718566 -1.699850
-66.559441 -13.679705 3.515021
-1.393161 -0.342451 0.285007
-14.352050 -1.608300 -1.684970
-15.779099 -2.624242 -1.727250
-10.584653 -0.971220 -1.746125
-10.939367 -1.592855 -1.731051
-17.234182 -3.927258 -1.773351
-18.552238 -5.295376 -1.798388
-11.462760 -2.386014 -1.730414
-12.197007 -3.208025 -1.771115
-1.294704 -0.021347 0.156616
-54.503433 -2.927353 -1.493463
-19.589247 0.450333 -1.646460
-21.514732 -0.690864 -1.606420
-68.537910 -7.486207 -1.336113
-1.373687 -0.204051 0.189211
-23.206421 -2.088081 -1.576130
-27.020332 -3.955208 -1.622322
-1.233143 -0.304919 0.200556
-1.372383 -0.365499 0.213030
-30.317808 -6.229499 -1.583077
-32.781086 -8.644616 -1.519074
-1.357777 -0.017736 0.291486
-1.406454 -0.047655 0.309900
-1.445240 0.009399 0.226642
-1.426790 -0.020217 0.237483
-1.355754 -0.173471 0.316699
-68.013931 -11.326510 6.676043
-1.375715 -0.146712 0.248070
-66.548370 -9.684838 2.972687
-4.782148 0.022611 -1.793264
-4.845205 -0.227876 -1.796265
-9.319539 -1.971828 -1.751237
-9.860808 -2.623607 -1.791430
-4.901572 -0.573078 -1.784313
-4.992021 -0.848528 -1.777736
-1.999579 -0.202678 -0.739485
-2.015933 -0.283218 -0.733063
-5.069310 -1.218461 -1.783405
-5.153080 -1.516674 -1.779197
-4.387122 -0.960762 -1.785016
-4.492210 -1.232983 -1.793270
-6.581552 0.012586 -1.769274
-6.800532 -0.332235 -1.770039
-5.633650 0.146874 -1.793599
-5.638891 -0.150497 -1.769479
-6.862978 -0.788972 -1.750941
-7.102715 -1.197255 -1.759786
-5.750387 -0.535993 -1.769282
-5.927385 -0.873043 -1.781502
-7.305854 -1.714528 -1.761272
-7.501147 -2.172697 -1.757239
-6.022995 -1.291845 -1.775638
-6.125348 -1.645872 -1.766815
-10.454723 0.024174 -1.745905
-11.006368 -0.574231 -1.745727
-8.131000 0.184524 -1.751028
-8.397450 -0.250591 -1.747581
-11.416360 -1.296168 -1.744579
-12.002972 -1.988167 -1.727549
-8.666713 -0.800370 -1.750852
-8.969015 -1.314195 -1.747271
-13.203833 0.073762 -1.703986
-13.759571 -0.675663 -1.700678
-66.298584 -13.409267 3.499930
-1.394230 -0.338072 0.285007
-14.374776 -1.565103 -1.687322
-15.685399 -2.557874 -1.714702
-10.587652 -0.937962 -1.746125
-10.944317 -1.558480 -1.731051
-17.133924 -3.848002 -1.760377
-18.545818 -5.230556 -1.795897
-11.549474 -2.366048 -1.743899
-12.142048 -3.152676 -1.760507
-1.294765 -0.017280 0.156616
-54.652111 -2.763241 -1.497828
-19.597689 0.512146 -1.647406
-21.524763 -0.623510 -1.607094
-68.829536 -7.299214 -1.342159
-1.374321 -0.199734 0.189211
-23.218824 -2.015676 -1.576589
-26.963495 -3.860336 -1.617631
-1.234095 -0.301044 0.200556
-1.373524 -0.361186 0.213030
-30.229572 -6.112547 -1.576712
-32.769428 -8.531491 -1.517036
-1.357826 -0.013470 0.291486
-1.406597 -0.043236 0.309900
-1.445203 0.013939 0.226642
-1.426846 -0.015735 0.237483
-1.356293 -0.169211 0.316699
-68.059021 -11.114389 6.676978
-1.376169 -0.142389 0.248070
-66.350967 -9.443252 2.963225
-4.782054 0.037635 -1.793264
-4.851449 -0.212927 -1.798521
-9.323767 -1.942145 -1.750845
-9.789241 -2.571445 -1.775740
-4.899651 -0.557275 -1.782840
-4.992822 -0.832524 -1.777018
-2.002018 -0.196549 -0.740316
-2.018619 -0.277155 -0.733880
-5.084060 -1.205067 -1.787611
-5.163228 -1.502080 -1.781240
-4.386530 -0.946222 -1.783415
-4.483634 -1.215421 -1.787823
-6.579560 0.033245 -1.768712
-6.799621 -0.310773 -1.769495
-5.612393 0.163870 -1.786377
-5.646900 -0.132994 -1.772074
-6.867338 -0.767614 -1.751474
-7.115970 -1.176546 -1.762356
-5.746374 -0.517440 -1.767378
-5.915045 -0.852181 -1.776565
-7.307425 -1.690706 -1.760283
-7.493009 -2.144793 -1.753436
-6.030760 -1.273689 -1.776837
-6.132336 -1.627119 -1.767397
-10.442788 0.056925 -1.743766
-10.996305 -0.539044 -1.743696
-8.132325 0.210124 -1.751484
-8.384545 -0.223801 -1.744493
-11.416452 -1.259872 -1.743929
-11.999405 -1.948843 -1.726027
-8.669184 -0.773139 -1.750852
-8.973099 -1.286011 -1.747271
-13.195619 0.115159 -1.702832
-13.763603 -0.632527 -1.700953
-66.712662 -13.274845 3.518428
-1.395286 -0.333690 0.285007
-14.375677 -1.519525 -1.686799
-15.658076 -2.502884 -1.710359
-10.594467 -0.905020 -1.746854
-10.953060 -1.524641 -1.731748
-17.048874 -3.772828 -1.749193
-18.585144 -5.178704 -1.798388
-11.562654 -2.330909 -1.744886
-12.130855 -3.109076 -1.757075
-1.294813 -0.013212 0.156616
-50.595154 -2.396850 -1.370886
-19.595982 0.573712 -1.647406
-21.540560 -0.556261 -1.608274
-69.212151 -7.119841 -1.350266
-68.079094 -10.953501 -0.702720
-23.234982 -1.943540 -1.577355
-26.935972 -3.770037 -1.614951
-1.235034 -0.297165 0.200556
-1.374652 -0.356869 0.213030
-30.240793 -6.015996 -1.576249
-32.691631 -8.401572 -1.511533
-1.357862 -0.009204 0.291486
-1.406726 -0.038817 0.309900
-1.445152 0.018480 0.226642
-1.426888 -0.011252 0.237483
-1.356817 -0.164949 0.316699
-67.841934 -10.860133 6.653041
-1.376609 -0.138065 0.248070
-67.456963 -9.384961 3.007983
-4.781912 0.052658 -1.793264
-4.848392 -0.197514 -1.797017
-9.318289 -1.910511 -1.748497
-9.818179 -2.546157 -1.779850
-4.895830 -0.541296 -1.780630
-5.006457 -0.818699 -1.781325
-2.018943 -0.191596 -0.747796
-2.026704 -0.271875 -0.737146
-5.087821 -1.189088 -1.787611
-5.166117 -1.485323 -1.780559
-4.387686 -0.932066 -1.782615
-4.487430 -1.201329 -1.787823
-6.585181 0.053986 -1.770399
-6.792874 -0.289053 -1.767315
-5.609962 0.181431 -1.785720
-5.652964 -0.115395 -1.774020
-6.865882 -0.745634 -1.750409
-7.119632 -1.154184 -1.762356
-5.757421 -0.500163 -1.770551
-5.928990 -0.835236 -1.780268
-7.327827 -1.671135 -1.764241
-7.503446 -2.122312 -1.754387
-6.030994 -1.253975 -1.775638
-6.133719 -1.606860 -1.766234
-10.456333 0.089885 -1.746261
-10.995976 -0.504399 -1.743358
-8.129680 0.235610 -1.751028
-8.389107 -0.197563 -1.745375
-11.418391 -1.223793 -1.743604
-12.005469 -1.911136 -1.726027
-8.679358 -0.746546 -1.752559
-8.975156 -1.257537 -1.746861
-13.203108 0.156723 -1.703986
-13.763545 -0.589195 -1.700678
-1.415771 -0.303026 0.273862
-1.396327 -0.329305 0.285007
-14.380381 -1.474354 -1.686799
-15.518790 -2.430397 -1.692260
-10.607059 -0.872514 -1.748676
-10.957795 -1.490223 -1.731748
-17.103374 -3.728497 -1.754114
-18.655001 -5.135145 -1.804201
-11.504098 -2.281669 -1.733703
-12.138647 -3.070462 -1.756763
-1.294848 -0.009144 0.156616
-51.866558 -2.294443 -1.410353
-19.598063 0.635407 -1.647784
-21.552164 -0.488824 -1.609116
-69.391357 -6.917978 -1.353804
-67.966995 -10.716464 -0.700767
-23.248924 -1.871166 -1.577967
-26.846863 -3.671510 -1.608115
-1.235962 -0.293284 0.200556
-1.375767 -0.352548 0.213030
-30.167431 -5.903018 -1.570809
-32.632690 -8.277152 -1.507050
-1.357884 -0.004938 0.291486
-1.406841 -0.034397 0.309900
-1.445087 0.023020 0.226642
-1.426917 -0.006769 0.237483
-72.694122 -7.232626 6.374899
-1.432110 -0.198876 0.336462
-1.377036 -0.133739 0.248070
-67.347511 -9.154099 3.002224
-4.779874 0.067645 -1.792504
-4.843434 -0.182042 -1.794761
-9.330014 -1.882375 -1.749671
-9.816618 -2.512839 -1.777982
-4.903056 -0.526478 -1.782840
-4.988746 -0.799612 -1.773429
-2.005027 -0.184109 -0.741147
-2.007671 -0.262646 -0.728163
-5.084223 -1.171453 -1.784807
-5.163532 -1.466995 -1.777835
-4.388797 -0.917912 -1.781815
-4.496517 -1.188667 -1.790158
-6.575384 0.074527 -1.767588
-6.805284 -0.268210 -1.770584
-5.592375 0.198373 -1.779812
-5.645733 -0.097470 -1.771425
-6.862437 -0.723475 -1.748812
-7.123222 -1.131811 -1.762356
-5.760855 -0.482222 -1.771186
-5.920283 -0.814999 -1.776565
-7.329258 -1.647269 -1.763252
-7.502599 -2.096613 -1.752485
-6.038645 -1.235771 -1.776837
-6.147991 -1.590016 -1.769141
-10.463869 0.122846 -1.747687
-10.997507 -0.469852 -1.743358
-8.134738 0.261355 -1.752396
-8.397488 -0.171390 -1.747140
-11.418252 -1.187515 -1.742955
-12.017271 -1.874336 -1.726940
-8.669976 -0.718342 -1.749998
-8.975185 -1.228793 -1.746042
-13.198593 0.198132 -1.703409
-13.767305 -0.546037 -1.700953
-1.416716 -0.298577 0.273862
-1.397355 -0.324917 0.285007
-14.388886 -1.429558 -1.687322
-15.343887 -2.353337 -1.669819
-10.590141 -0.837686 -1.745032
-10.966327 -1.456320 -1.732444
-17.138329 -3.679722 -1.756799
-18.719011 -5.089628 -1.809392
-11.487963 -2.241037 -1.729756
-12.123328 -3.026042 -1.752707
-1.294870 -0.005076 0.156616
-53.211700 -2.187155 -1.452126
-19.609896 0.697483 -1.649107
-21.551600 -0.421076 -1.608947
-69.898384 -6.746650 -1.364732
-67.923241 -10.490964 -0.699737
-23.240768 -1.797062 -1.576895
-26.779158 -3.576512 -1.602754
-1.236877 -0.289400 0.200556
-1.376867 -0.348225 0.213030
-30.077972 -5.787561 -1.564443
-32.635284 -8.168761 -1.505827
-1.357893 -0.000673 0.291486
-1.406942 -0.029977 0.309900
-1.445007 0.027559 0.226642
-1.426931 -0.002287 0.237483
-1.357827 -0.156421 0.316699
-1.432727 -0.194376 0.336462
-1.377450 -0.129413 0.248070
-67.407631 -8.946704 3.003541
-4.785185 0.082786 -1.794785
-4.847685 -0.166974 -1.796265
-9.337807 -1.853433 -1.750062
-9.833983 -2.484419 -1.779850
-4.910236 -0.511622 -1.785049
-4.993076 -0.784235 -1.774147
-1.994712 -0.176986 -0.736161
-2.051875 -0.262443 -0.747762
-5.091536 -1.156287 -1.786209
-5.180771 -1.454386 -1.782603
-4.397050 -0.905198 -1.784216
-4.489549 -1.171685 -1.785489
-6.573198 0.095147 -1.767025
-6.802248 -0.246676 -1.769495
-5.616261 0.217002 -1.788347
-5.647902 -0.079769 -1.772074
-6.862756 -0.701725 -1.748279
-7.138195 -1.111254 -1.765441
-5.756668 -0.463691 -1.769282
-5.930351 -0.797444 -1.779033
-7.334396 -1.624237 -1.763252
-7.512890 -2.074080 -1.753436
-6.036880 -1.215689 -1.775038
-6.145546 -1.568771 -1.766815
-10.449657 0.155478 -1.745192
-10.996957 -0.435219 -1.743019
-8.133876 0.286908 -1.752396
-8.397985 -0.145009 -1.747140
-11.423890 -1.151834 -1.743280
-12.023099 -1.836576 -1.726940
-8.672190 -0.691103 -1.749998
-8.973183 -1.199797 -1.744812
-13.223629 0.240117 -1.707157
-13.764995 -0.502627 -1.700402
-66.929031 -12.663293 3.523102
-1.398369 -0.320525 0.285007
-14.395282 -1.384529 -1.687583
-15.361021 -2.306608 -1.671026
-10.594681 -0.804553 -1.745396
-10.972800 -1.422116 -1.732792
-17.219830 -3.640554 -1.764851
-18.688820 -5.018349 -1.804409
-11.485258 -2.203096 -1.728112
-12.171121 -2.997465 -1.758947
-1.294880 -0.001008 0.156616
-1.385822 -0.027259 0.165694
-19.621534 0.759649 -1.650431
-21.564770 -0.353572 -1.609958
-70.978409 -6.625484 -1.388560
-68.046829 -10.291298 -0.700952
-23.262209 -1.725196 -1.578120
-26.699251 -3.480405 -1.596588
-1.237780 -0.285512 0.200556
-1.377954 -0.343897 0.213030
-30.133287 -5.700051 -1.566642
-32.618134 -8.055615 -1.503585
-1.357888 0.003594 0.291486
-1.407029 -0.025557 0.309900
-1.444914 0.032099 0.226642
-1.426931 0.002197 0.237483
-1.358312 -0.152154 0.316699
-1.433331 -0.189873 0.336462
-1.377849 -0.125084 0.248070
-1.434475 -0.160146 0.263205
-4.783052 0.097772 -1.794024
-4.850038 -0.151810 -1.797017
-9.349362 -1.825197 -1.751237
-9.815067 -2.446788 -1.774620
-4.900713 -0.495129 -1.780630
-5.001046 -0.769424 -1.776300
-1.993443 -0.170587 -0.735329
-2.040029 -0.254254 -0.742046
-5.095143 -1.140284 -1.786209
-5.174457 -1.435034 -1.778516
-4.399873 -0.891379 -1.784216
-4.505679 -1.160861 -1.790936
-6.574785 0.115840 -1.767588
-6.797220 -0.225090 -1.767860
-5.602341 0.234033 -1.783751
-5.648125 -0.062024 -1.772074
-6.870686 -0.680708 -1.749876
-7.132102 -1.087330 -1.762870
-5.761880 -0.445878 -1.770551
-5.923402 -0.777528 -1.775948
-7.328094 -1.598746 -1.760283
-7.513752 -2.048913 -1.752010
-6.042544 -1.197079 -1.775638
-6.154152 -1.550405 -1.767978
-10.447149 0.188268 -1.744835
-10.996301 -0.400589 -1.742681
-8.127097 0.312220 -1.751028
-8.396448 -0.118589 -1.746699
-11.419596 -1.115186 -1.741981
-12.030766 -1.799088 -1.727244
-8.674318 -0.663852 -1.749998
-8.976909 -1.171598 -1.744812
-13.201044 0.281150 -1.703986
-13.770465 -0.459523 -1.700953
-66.328186 -12.334167 3.491363
-1.399369 -0.316131 0.285007
-14.403509 -1.339661 -1.688105
-15.527260 -2.281988 -1.690571
-10.603041 -0.771681 -1.746490
-10.975261 -1.387388 -1.732444
-17.165005 -3.572770 -1.757246
-18.771763 -4.977549 -1.811675
-11.492122 -2.167006 -1.728112
-12.228445 -2.970975 -1.766747
-1.294877 0.003060 0.156616
-1.385901 -0.022905 0.165694
-19.625019 0.821542 -1.650998
-21.581718 -0.286057 -1.611306
-71.337410 -6.432883 -1.396173
-96.083611 -14.233755 -1.074688
-23.265526 -1.651972 -1.577967
-26.573479 -3.379013 -1.587340
-1.238671 -0.281622 0.200556
-1.379028 -0.339567 0.213030
-30.109816 -5.597734 -1.564212
-32.573429 -7.936035 -1.499916
-1.357870 0.007859 0.291486
-1.407102 -0.021137 0.309900
-1.444806 0.036638 0.226642
-1.426917 0.006679 0.237483
-1.358783 -0.147886 0.316699
-1.433920 -0.185370 0.336462
-1.378235 -0.120755 0.248070
-1.434971 -0.155639 0.263205
-4.784571 0.112851 -1.794785
-4.856048 -0.136760 -1.799273
-9.349268 -1.794725 -1.750062
-9.729275 -2.392708 -1.756315
-4.909651 -0.480417 -1.783576
-5.008972 -0.754573 -1.778454
-2.008488 -0.165330 -0.741979
-2.042627 -0.248087 -0.742862
-5.087713 -1.121907 -1.782003
-5.168073 -1.415738 -1.774429
-4.406250 -0.878248 -1.785816
-4.516435 -1.148557 -1.794048
-6.585902 0.136778 -1.770961
-6.795970 -0.203671 -1.767315
-5.609126 0.252005 -1.786377
-5.655859 -0.044374 -1.774668
-6.882389 -0.660005 -1.752539
-7.135483 -1.064920 -1.762870
-5.759468 -0.427512 -1.769282
-5.925816 -0.758917 -1.775948
-7.334977 -1.576118 -1.760778
-7.520151 -2.025299 -1.752010
-6.044400 -1.177734 -1.775038
-6.155282 -1.530126 -1.766815
-10.452411 0.221225 -1.745905
-10.995536 -0.365974 -1.742342
-8.126076 0.337749 -1.751028
-8.396780 -0.092212 -1.746699
-11.434833 -1.080395 -1.743929
-12.036358 -1.761286 -1.727244
-8.674411 -0.636462 -1.749570
-8.976662 -1.142887 -1.743993
-13.209988 0.322879 -1.705427
-13.767881 -0.416135 -1.700402
-66.001076 -12.059103 3.473254
-1.400355 -0.311733 0.285007
-14.407646 -1.294407 -1.688105
-15.436117 -2.218911 -1.678506
-10.609338 -0.738632 -1.747219
-10.975657 -1.352412 -1.731748
-17.004755 -3.483983 -1.737562
-18.810390 -4.924631 -1.814167
-11.491109 -2.129473 -1.726796
-12.253078 -2.936261 -1.769243
-1.294861 0.007128 0.156616
-1.385966 -0.018551 0.165694
-19.644220 0.884202 -1.653078
-21.584503 -0.218281 -1.611475
-71.514641 -6.222388 -1.399712
-96.228783 -13.946504 -1.076035
-23.292486 -1.580338 -1.579651
-26.546341 -3.290818 -1.584794
-1.239549 -0.277730 0.200556
-1.380088 -0.335233 0.213030
-30.019207 -5.483478 -1.557846
-32.590435 -7.831796 -1.499509
-1.357839 0.012125 0.291486
-1.407162 -0.016716 0.309900
-1.444683 0.041177 0.226642
-1.426889 0.011162 0.237483
-1.359241 -0.143617 0.316699
-1.434496 -0.180864 0.336462
-1.378608 -0.116425 0.248070
-67.393768 -8.299262 2.999591
-4.774949 0.127583 -1.790983
-4.852748 -0.121392 -1.797769
-9.358717 -1.766063 -1.750845
-9.732925 -2.361196 -1.755568
-4.907433 -0.464661 -1.782103
-5.016854 -0.739679 -1.780607
-1.979955 -0.157098 -0.728680
-2.045206 -0.241906 -0.743679
-5.096709 -1.107085 -1.784106
-5.181558 -1.401996 -1.777835
-4.399985 -0.862691 -1.781815
-4.505745 -1.130696 -1.787823
-6.583521 0.157413 -1.770399
-6.821581 -0.183088 -1.774398
-5.604533 0.269425 -1.785064
-5.650295 -0.026554 -1.772722
-6.876747 -0.637699 -1.750409
-7.134970 -1.041927 -1.761842
-5.762675 -0.409543 -1.769917
-5.916850 -0.738834 -1.772244
-7.334200 -1.551885 -1.759293
-7.528352 -2.002171 -1.752485
-6.057446 -1.160496 -1.778037
-6.160058 -1.510783 -1.766815
-10.441826 0.253796 -1.744122
-11.002542 -0.331623 -1.743358
-8.124975 0.363274 -1.751028
-8.389224 -0.065749 -1.744934
-11.444066 -1.044993 -1.744903
-12.047698 -1.724319 -1.728157
-8.688065 -0.609995 -1.752133
-8.997685 -1.116902 -1.747681
-13.193638 0.343188 -1.703121
-13.774457 -0.394688 -1.701229
-66.145737 -11.978138 3.479485
-1.400843 -0.309533 0.285007
-14.409661 -1.271772 -1.688105
-15.435653 -2.194094 -1.678023
-10.608522 -0.721836 -1.746854
-10.985584 -1.336138 -1.733140
-17.008259 -3.456872 -1.737338
-18.760370 -4.879975 -1.807938
-11.488618 -2.110362 -1.725810
-12.309540 -2.929464 -1.777666
-1.294848 0.009162 0.156616
-1.385994 -0.016374 0.165694
-19.652748 0.915537 -1.654024
-21.588802 -0.184412 -1.611812
-1.279671 -0.134944 0.179419
-96.212959 -13.789916 -1.075533
-23.288971 -1.543356 -1.579192
-26.537615 -3.247401 -1.583855
-1.239984 -0.275782 0.200556
-1.380613 -0.333064 0.213030
-30.051365 -5.440562 -1.559235
-32.657082 -7.793613 -1.502362
-1.357818 0.014258 0.291486
-1.407187 -0.014506 0.309900
-1.444617 0.043446 0.226642
-1.426870 0.013403 0.237483
-1.359465 -0.141482 0.316699
-1.434778 -0.178611 0.336462
-1.378789 -0.114259 0.248070
-67.307533 -8.181285 2.995477
-4.780289 0.135271 -1.793264
-4.854786 -0.113821 -1.798521
-9.367266 -1.752425 -1.752019
-9.725170 -2.343112 -1.753327
-4.904451 -0.456626 -1.780630
-5.021701 -0.732355 -1.782043
-2.029213 -0.157154 -0.751121
-2.023857 -0.235879 -0.733880
-5.094776 -1.098306 -1.782704
-5.178314 -1.392363 -1.775791
-4.401335 -0.855778 -1.781815
-4.502161 -1.122249 -1.785489
-6.577510 0.167586 -1.768712
-6.798778 -0.171700 -1.767860
-5.598444 0.277922 -1.783094
-5.640871 -0.017605 -1.769479
-6.877740 -0.626895 -1.750409
-7.130863 -1.029867 -1.760300
-5.761418 -0.400366 -1.769282
-5.938761 -0.732189 -1.779033
-7.336628 -1.540361 -1.759293
-7.537118 -1.991850 -1.753911
-6.049882 -1.149238 -1.775038
-6.160567 -1.500643 -1.766234
-10.457153 0.270645 -1.746974
-11.001079 -0.314277 -1.743019
-8.124395 0.376037 -1.751028
-8.395170 -0.052625 -1.746258
-11.429967 -1.025638 -1.742305
-12.032784 -1.702860 -1.725419
-8.683163 -0.595962 -1.750852
-8.999430 -1.102766 -1.747681
-13.214253 0.385314 -1.706292
-13.775630 -0.351411 -1.701229
-66.979652 -11.911625 3.518915
-1.401808 -0.305131 0.285007
-14.419514 -1.226989 -1.688889
-15.414945 -2.141719 -1.674645
-10.608774 -0.688382 -1.746490
-10.987773 -1.301382 -1.732792
-17.046328 -3.408837 -1.740470
-18.831465 -4.835433 -1.813959
-11.502959 -2.075643 -1.727125
-12.286003 -2.883038 -1.772363
-42.105770 1.250075 -1.517456
-1.386038 -0.012020 0.165694
-19.677614 0.978696 -1.656671
-21.595255 -0.116626 -1.612317
-71.023041 -5.842704 -1.388022
-96.352859 -13.501205 -1.076827
-23.313610 -1.471417 -1.580723
-26.515985 -3.160204 -1.581711
-1.240844 -0.271885 0.200556
-1.381652 -0.328725 0.213030
-30.158749 -5.362125 -1.564559
-32.671692 -7.688684 -1.501853
-1.357767 0.018524 0.291486
-1.407225 -0.010085 0.309900
-1.444473 0.047984 0.226642
-1.426821 0.017886 0.237483
-1.359903 -0.137210 0.316699
-1.435332 -0.174102 0.336462
-1.379141 -0.109927 0.248070
-67.606750 -8.002310 3.006832
-4.787234 0.150561 -1.796306
-4.851414 -0.098474 -1.797017
-9.372725 -1.722988 -1.752019
-9.722931 -2.310252 -1.751459
-4.907714 -0.441372 -1.781366
-5.016591 -0.715482 -1.779172
-2.009725 -0.149551 -0.741979
-2.059003 -0.233867 -0.749395
-5.101870 -1.083054 -1.784106
-5.175402 -1.374122 -1.773067
-4.405803 -0.842280 -1.782615
-4.512810 -1.109900 -1.788601
-6.584624 0.188499 -1.770961
-6.795436 -0.150240 -1.766770
-5.597544 0.295509 -1.783094
-5.639006 0.000126 -1.768831
-6.881597 -0.605446 -1.750941
-7.145540 -1.009123 -1.763384
-5.758862 -0.382030 -1.768013
-5.933481 -0.712588 -1.776565
-7.341432 -1.517305 -1.759293
-7.545217 -1.968658 -1.754387
-6.053463 -1.130225 -1.775038
-6.163392 -1.480827 -1.765653
-10.446417 0.303187 -1.745192
-10.990191 -0.279385 -1.740988
-8.132897 0.402071 -1.753307
-8.395294 -0.026250 -1.746258
-11.440999 -0.990387 -1.743604
-12.059607 -1.668074 -1.728766
-8.694743 -0.569289 -1.752987
-9.006736 -1.074963 -1.748500
-13.207045 0.426622 -1.705427
-13.768745 -0.307940 -1.700126
-66.223640 -11.562977 3.479680
-1.402760 -0.300725 0.285007
-14.413416 -1.180891 -1.687583
-15.409796 -2.091659 -1.673197
-10.597143 -0.654235 -1.743939
-10.987896 -1.266396 -1.732096
-17.037443 -3.351460 -1.738233
-18.861984 -4.780179 -1.815620
-11.509423 -2.039494 -1.727125
-12.296926 -2.844875 -1.772675
-1.294765 0.017297 0.156616
-1.386069 -0.007665 0.165694
-19.674444 1.040511 -1.656671
-21.605480 -0.048816 -1.613160
-71.437721 -5.650780 -1.396935
-96.503754 -13.213383 -1.078279
-23.328066 -1.398753 -1.581488
-26.470287 -3.070393 -1.577958
-1.241692 -0.267986 0.200556
-1.382678 -0.324383 0.213030
-30.159708 -5.264618 -1.563633
-32.726810 -7.593250 -1.503483
-1.357702 0.022789 0.291486
-1.407250 -0.005664 0.309900
-1.444315 0.052522 0.226642
-1.426758 0.022368 0.237483
-1.360327 -0.132937 0.316699
-1.435872 -0.169592 0.336462
-1.379480 -0.105594 0.248070
-69.410194 -7.995430 3.080552
-4.788586 0.165674 -1.797066
-4.859111 -0.083399 -1.800025
-9.368437 -1.691817 -1.750062
-9.722493 -2.277882 -1.749965
-4.907224 -0.425801 -1.780630
-5.024355 -0.700520 -1.781325
-1.982944 -0.141648 -0.729511
-2.030735 -0.223828 -0.736329
-5.110754 -1.068142 -1.786209
-5.181510 -1.358342 -1.773748
-4.413837 -0.829419 -1.785016
-4.514487 -1.095272 -1.787823
-6.576327 0.208910 -1.768712
-6.809341 -0.129197 -1.770584
-5.602244 0.313436 -1.785064
-5.656005 0.017817 -1.774668
-6.883465 -0.583824 -1.750941
-7.150589 -0.986940 -1.763898
-5.763820 -0.364158 -1.769282
-5.943244 -0.694860 -1.779033
-7.355664 -1.496131 -1.761767
-7.541965 -1.942490 -1.752010
-6.056984 -1.111202 -1.775038
-6.182897 -1.465047 -1.770303
-10.457211 0.336413 -1.747330
-11.014660 -0.245440 -1.745050
-8.129648 0.427511 -1.752851
-8.389482 0.000143 -1.744934
-11.449954 -0.954918 -1.744579
-12.058912 -1.629372 -1.727853
-8.688687 -0.541508 -1.751279
-9.006180 -1.046199 -1.747681
-13.211573 0.468331 -1.706292
-13.783506 -0.264978 -1.702057
-66.102119 -11.327953 3.471891
-1.403698 -0.296317 0.285007
-14.419031 -1.135759 -1.687844
-15.410387 -2.042448 -1.672473
-10.601110 -0.621052 -1.744303
-10.991819 -1.231873 -1.732096
-17.114252 -3.310657 -1.745838
-18.871120 -4.719446 -1.814997
-11.513828 -2.002995 -1.726796
-12.300024 -2.804901 -1.771739
-1.294704 0.021365 0.156616
-1.386086 -0.003311 0.165694
-19.692944 1.103565 -1.658751
-21.617481 0.019052 -1.614170
-71.469078 -5.427392 -1.397248
-96.867882 -12.953454 -1.082582
-23.346285 -1.326239 -1.582560
-26.384630 -2.976393 -1.571525
-1.242528 -0.264084 0.200556
-1.383690 -0.320038 0.213030
-30.099337 -5.156764 -1.559119
-32.717403 -7.482808 -1.501751
-1.357624 0.027054 0.291486
-1.407261 -0.001243 0.309900
-1.444143 0.057059 0.226642
-1.426680 0.026850 0.237483
-1.360738 -0.128663 0.316699
-1.436398 -0.165081 0.336462
-1.379805 -0.101260 0.248070
-68.251434 -7.644331 3.031515
-4.782497 0.180477 -1.794785
-4.859349 -0.068134 -1.800025
-9.367908 -1.661367 -1.748888
-9.725776 -2.246434 -1.749218
-4.908537 -0.410383 -1.780630
-5.011745 -0.682642 -1.775583
-2.036053 -0.138323 -0.753614
-2.038679 -0.218317 -0.739596
-5.108574 -1.050977 -1.784106
-5.207570 -1.347817 -1.781922
-4.414617 -0.815227 -1.784216
-4.521485 -1.081963 -1.789380
-6.581392 0.229792 -1.770399
-6.800094 -0.107617 -1.767860
-5.605003 0.331274 -1.786377
-5.654029 0.035581 -1.774020
-6.885264 -0.562197 -1.750941
-7.153653 -0.964472 -1.763898
-5.763042 -0.345945 -1.768647
-5.943508 -0.675963 -1.778416
-7.350820 -1.471148 -1.759293
-7.549911 -1.919273 -1.752485
-6.058565 -1.091839 -1.774438
-6.187468 -1.445617 -1.770303
-10.452171 0.369113 -1.746618
-11.003551 -0.210583 -1.743019
-8.130210 0.453162 -1.753307
-8.383588 0.026498 -1.743611
-11.448963 -0.918637 -1.743929
-12.062012 -1.591220 -1.727549
-8.690346 -0.514211 -1.751279
-9.015256 -1.018578 -1.748910
-13.190262 0.509036 -1.703409
-13.780311 -0.221599 -1.701506
-1.423357 -0.265116 0.273862
-1.404622 -0.291905 0.285007
-14.428461 -1.090888 -1.688628
-15.410823 -1.993246 -1.671749
-10.604974 -0.587846 -1.744668
-10.997594 -1.197550 -1.732444
-17.013248 -3.235869 -1.733088
-18.905159 -4.664923 -1.817073
-11.531738 -1.968776 -1.728770
-12.328043 -2.770614 -1.774859
-1.294630 0.025432 0.156616
-1.386090 0.001044 0.165694
-19.711241 1.166756 -1.660831
-21.631268 0.087011 -1.615350
-71.693184 -5.217838 -1.401906
-97.118294 -12.676534 -1.085380
-23.360294 -1.253405 -1.583325
-26.552526 -2.911034 -1.582247
-1.243352 -0.260178 0.200556
-1.384689 -0.315689 0.213030
-30.156746 -5.069085 -1.561550
-32.641399 -7.357502 -1.496554
-1.357532 0.031319 0.291486
-1.407258 0.003179 0.309900
-1.443957 0.061596 0.226642
-1.426589 0.031332 0.237483
-1.361135 -0.124387 0.316699
-1.436909 -0.160567 0.336462
-1.380116 -0.096924 0.248070
-68.571106 -7.462179 3.043774
-4.774515 0.195159 -1.791743
-4.853980 -0.052776 -1.797769
-9.375016 -1.632257 -1.749280
-9.734699 -2.216307 -1.749591
-4.913511 -0.395238 -1.782103
-5.013865 -0.666892 -1.775583
-1.994695 -0.129753 -0.734498
-2.008528 -0.208311 -0.725714
-5.115526 -1.035647 -1.785508
-5.195402 -1.327181 -1.775791
-4.420767 -0.801986 -1.785816
-4.528443 -1.068618 -1.790936
-6.563379 0.249743 -1.765339
-6.802323 -0.086283 -1.768405
-5.592625 0.348126 -1.782438
-5.657674 0.053364 -1.775317
-6.879308 -0.539987 -1.748812
-7.147072 -0.940696 -1.761328
-5.769783 -0.328134 -1.770551
-5.955053 -0.658372 -1.781502
-7.361115 -1.449149 -1.760778
-7.555904 -1.895542 -1.752485
-6.063847 -1.073123 -1.775038
-6.186391 -1.424858 -1.768559
-10.441128 0.401548 -1.744835
-11.002188 -0.175974 -1.742681
-8.126801 0.478584 -1.752851
-8.381514 0.052832 -1.743170
-11.449825 -0.882514 -1.743604
-12.076752 -1.554598 -1.729070
-8.689967 -0.486801 -1.750852
-9.022302 -0.990686 -1.749730
-13.204414 0.551160 -1.705715
-13.776976 -0.178250 -1.700953
-1.424183 -0.260644 0.273862
-1.405532 -0.287491 0.285007
-14.433795 -1.045697 -1.688889
-15.411099 -1.944069 -1.671026
-10.606768 -0.554528 -1.744668
-11.011090 -1.164054 -1.734184
-16.974476 -3.173351 -1.727496
-18.977686 -4.619703 -1.823302
-11.520348 -1.929646 -1.725810
-12.342467 -2.733166 -1.775794
-1.294544 0.029499 0.156616
-1.386080 0.005398 0.165694
-19.737282 1.230568 -1.663667
-21.632879 0.154975 -1.615518
-71.717201 -4.993148 -1.402085
-97.447250 -12.408341 -1.089234
-23.368099 -1.180211 -1.583631
-26.623047 -2.834216 -1.586402
-1.244163 -0.256271 0.200556
-1.385674 -0.311338 0.213030
-30.202076 -4.979172 -1.563286
-32.650703 -7.251883 -1.495840
-1.357427 0.035584 0.291486
-1.407241 0.007599 0.309900
-1.443756 0.066132 0.226642
-1.426483 0.035814 0.237483
-1.361519 -0.120111 0.316699
-68.647179 -8.678122 6.698857
-1.380414 -0.092588 0.248070
-73.603851 -7.777894 3.251196
-4.781269 0.210523 -1.794785
-4.855975 -0.037552 -1.798521
-9.378162 -1.602474 -1.748888
-9.749277 -2.187456 -1.751085
-4.905455 -0.379133 -1.778420
-5.023335 -0.652138 -1.778454
-2.005994 -0.124018 -0.739485
-2.041825 -0.205709 -0.740413
-5.118754 -1.019572 -1.785508
-5.214114 -1.314602 -1.781240
-4.414234 -0.786539 -1.781815
-4.533570 -1.054814 -1.791714
-6.587488 0.271486 -1.772648
-6.810257 -0.065017 -1.770584
-5.610349 0.367013 -1.789003
-5.655585 0.071121 -1.774668
-6.886738 -0.518787 -1.750409
-7.155740 -0.918999 -1.762870
-5.765102 -0.309727 -1.768647
-5.938185 -0.637549 -1.775330
-7.363726 -1.425656 -1.760283
-7.567474 -1.873216 -1.753911
-6.069069 -1.054387 -1.775638
-6.192700 -1.405848 -1.769141
-10.447680 0.434693 -1.746261
-11.002687 -0.141411 -1.742681
-8.134974 0.504745 -1.755130
-8.389108 0.079210 -1.744934
-11.448604 -0.846259 -1.742955
-12.079615 -1.516401 -1.728766
-8.701210 -0.459986 -1.752987
-9.017586 -0.961486 -1.748091
-13.192733 0.592178 -1.704274
-13.781432 -0.135013 -1.701506
-65.699104 -10.622705 3.446870
-1.406428 -0.283074 0.285007
-14.440966 -1.000613 -1.689412
-15.409250 -1.894661 -1.670060
-10.594707 -0.520561 -1.742117
-11.002942 -1.128223 -1.732096
-17.005869 -3.123926 -1.729957
-19.011440 -4.564730 -1.825378
-11.524406 -1.893129 -1.725481
-12.134919 -2.646774 -1.740852
-1.294445 0.033566 0.156616
-1.386056 0.009753 0.165694
-19.763119 1.294561 -1.666503
-21.642254 0.223027 -1.616361
-1.281987 -0.110800 0.179419
-97.531403 -12.107815 -1.089842
-23.389618 -1.107621 -1.585009
-26.556400 -2.742698 -1.581309
-1.244962 -0.252361 0.200556
-1.386645 -0.306983 0.213030
-30.266851 -4.892187 -1.566179
-32.644062 -7.142843 -1.494312
-1.357309 0.039848 0.291486
-1.407210 0.012020 0.309900
-1.443541 0.070667 0.226642
-1.426364 0.040295 0.237483
-1.361890 -0.115833 0.316699
-1.437890 -0.151536 0.336462
-1.380698 -0.088251 0.248070
-68.640488 -7.033653 3.044762
-4.780584 0.225543 -1.794785
-4.861628 -0.022351 -1.800777
-9.390891 -1.574279 -1.750454
-9.773359 -2.160679 -1.754448
-4.915897 -0.364358 -1.782103
-5.027209 -0.636597 -1.779172
-2.024546 -0.118546 -0.747796
-2.024314 -0.197290 -0.732247
-5.120092 -1.003134 -1.784807
-5.198171 -1.293123 -1.773748
-4.420297 -0.773278 -1.783415
-4.540448 -1.041410 -1.793270
-6.601939 0.292921 -1.777146
-6.802731 -0.043542 -1.768405
-5.597864 0.383809 -1.785064
-5.655334 0.088889 -1.774668
-6.888334 -0.497149 -1.750409
-7.147090 -0.895031 -1.759786
-5.766047 -0.291614 -1.768647
-5.959072 -0.620944 -1.781502
-7.371979 -1.403226 -1.761272
-7.567665 -1.848031 -1.752485
-6.068587 -1.034690 -1.774438
-6.189623 -1.384685 -1.766815
-10.448228 0.467606 -1.746618
-11.001107 -0.106820 -1.742342
-8.133349 0.530299 -1.755130
-8.386868 0.105547 -1.744493
-11.453175 -0.810423 -1.743280
-12.074513 -1.477223 -1.727244
-8.698709 -0.432465 -1.752133
-9.018616 -0.932945 -1.747681
-13.204644 0.634314 -1.706292
-13.777824 -0.091682 -1.700953
-65.659142 -10.404710 3.443268
-1.407311 -0.278654 0.285007
-14.453931 -0.955876 -1.690718
-15.419069 -1.846720 -1.670543
-10.608077 -0.487787 -1.744303
-11.008390 -1.093849 -1.732444
-17.046902 -3.076084 -1.733536
-19.089544 -4.520190 -1.832229
-11.545884 -1.859389 -1.728112
-11.720377 -2.516885 -1.672527
-1.294333 0.037632 0.156616
-1.386019 0.014107 0.165694
-19.792721 1.359006 -1.669717
-21.641443 0.291018 -1.616361
-1.282329 -0.106772 0.179419
-97.676155 -11.814342 -1.091267
-23.412909 -1.034992 -1.586540
-26.590694 -2.661863 -1.583051
-1.245749 -0.248449 0.200556
-1.387603 -0.302625 0.213030
-30.270239 -4.795212 -1.565485
-32.637054 -7.033917 -1.492783
-1.357177 0.044112 0.291486
-1.407165 0.016441 0.309900
-1.443312 0.075202 0.226642
-1.426230 0.044776 0.237483
-1.362247 -0.111553 0.316699
-1.438359 -0.147018 0.336462
-1.380968 -0.083913 0.248070
-70.660637 -7.017170 3.127450
-4.770617 0.240045 -1.790983
-4.852408 -0.007014 -1.797017
-9.391919 -1.544142 -1.749671
-9.780100 -2.129964 -1.754448
-4.911451 -0.348547 -1.779893
-5.029185 -0.620800 -1.779172
-2.023091 -0.112108 -0.746965
-2.043077 -0.192876 -0.740413
-5.121377 -0.986699 -1.784106
-5.202207 -1.276786 -1.773748
-4.431745 -0.760886 -1.787417
-4.538313 -1.025892 -1.790936
-6.581818 0.312674 -1.771523
-6.814380 -0.022252 -1.771674
-5.577794 0.399955 -1.778499
-5.653136 0.106628 -1.774020
-6.887938 -0.475380 -1.749876
-7.165208 -0.874502 -1.763898
-5.778304 -0.273986 -1.772455
-5.940182 -0.600026 -1.774713
-7.368727 -1.378660 -1.759293
-7.573433 -1.824247 -1.752485
-6.075575 -1.016233 -1.775638
-6.197677 -1.366071 -1.767978
-10.446707 0.500428 -1.746618
-10.993504 -0.072187 -1.740988
-8.118045 0.554876 -1.751940
-8.382593 0.131846 -1.743611
-11.457634 -0.774566 -1.743604
-12.081057 -1.439520 -1.727549
-8.690265 -0.404710 -1.749998
-9.025396 -0.905009 -1.748500
-13.178868 0.674534 -1.702832
-13.778044 -0.048397 -1.700953
-65.784286 -10.212749 3.447844
-1.408179 -0.274232 0.285007
-14.450925 -0.910099 -1.689934
-15.420851 -1.797804 -1.670060
-10.599732 -0.454061 -1.742481
-11.015693 -1.059646 -1.733140
-16.999716 -3.012541 -1.727049
-19.066856 -4.451554 -1.828284
-11.545820 -1.822197 -1.727125
-12.050851 -2.549005 -1.724629
-1.294209 0.041699 0.156616
-1.385967 0.018461 0.165694
-19.794308 1.421616 -1.670285
-21.662340 0.359343 -1.618214
-73.645233 -4.429670 -1.444365
-97.857773 -11.524534 -1.093194
-23.414051 -0.961353 -1.586387
-26.648575 -2.583173 -1.586402
-1.246523 -0.244534 0.200556
-1.388547 -0.298264 0.213030
-30.218061 -4.689735 -1.561550
-32.627731 -6.924689 -1.491153
