ply
format ascii 1.0
element vertex 1635
property float x
property float y
property float z
end_header
-32.794628 14.745212 -0.912562
-19.426210 10.589593 -1.886785
-18.824184 8.951696 -1.548799
-32.916416 12.645857 -0.581616
-70.820709 22.694729 -0.774184
-24.855755 10.111517 -1.847419
-27.806225 9.541011 -1.762653
-32.293762 8.357277 0.039340
-57.188000 11.462035 0.485475
-31.463148 8.821026 -1.683078
-34.771980 7.705508 -1.606507
-1.214996 0.606348 0.291486
-1.271971 0.602057 0.309900
-1.280305 0.670541 0.226642
-19.929741 9.498157 0.707827
-1.284554 0.466994 0.316699
-1.368520 0.466521 0.336462
-1.290035 0.499925 0.248070
-93.797943 32.265553 4.287893
-4.233745 2.207747 -1.790222
-4.395899 2.010591 -1.789496
-9.438596 2.587017 -1.803285
-9.947742 2.181895 -1.787694
-4.600266 1.729142 -1.776210
-4.820630 1.531377 -1.775583
-4.003821 1.607758 -1.792534
-4.151089 1.419668 -1.784841
-5.053269 1.236914 -1.779198
-5.271571 1.012262 -1.777835
-4.316742 1.149863 -1.774612
-4.514552 0.953421 -1.774595
-6.077307 3.148598 -1.846305
-6.403957 2.913867 -1.834332
-4.983164 2.735634 -1.810669
-5.152857 2.484060 -1.796720
-6.650770 2.515528 -1.806847
-7.035142 2.244783 -1.808107
-5.406024 2.178384 -1.787054
-5.731704 1.961109 -1.803104
-7.388361 1.851146 -1.789970
-7.762133 1.524838 -1.781959
-6.002505 1.627089 -1.794233
-6.288522 1.362683 -1.794719
-10.018029 5.195732 -1.896332
-10.717089 4.833320 -1.871988
-7.603708 4.142435 -1.874102
-7.996645 3.823028 -1.852115
-11.333109 4.304904 -1.848833
-12.172923 3.922128 -1.823404
-8.451991 3.415075 -1.840949
-8.915353 3.057226 -1.822674
-12.990428 6.791597 -1.915873
-13.684019 6.221668 -1.875652
-87.518227 24.833630 4.637077
-1.394171 0.338316 0.285007
-14.638870 5.638181 -1.849045
-15.762030 5.122684 -1.797470
-10.368130 4.234217 -1.851810
-10.948425 3.803925 -1.825727
-16.942724 4.417058 -1.754562
-18.114925 3.693095 -1.714305
-11.661201 3.276900 -1.797838
-12.341166 2.784278 -1.777354
-1.158778 0.577882 0.156616
-32.808250 14.875360 -0.914619
-19.403313 10.656329 -1.887920
-18.720449 8.974697 -1.541723
-32.941753 12.774549 -0.583184
-70.024132 22.682552 -0.764126
-24.875500 10.210800 -1.851705
-27.730852 9.612670 -1.759436
-32.402740 8.494287 0.038637
-57.175228 11.646410 0.485589
-31.512094 8.941682 -1.687708
-34.823616 7.831741 -1.610481
-1.213086 0.610161 0.291486
-1.270074 0.606050 0.309900
-1.278192 0.674559 0.226642
-19.827675 9.526166 0.706006
-1.283080 0.471027 0.316699
-1.367048 0.470818 0.336462
-1.288458 0.503975 0.248070
-1.354784 0.497922 0.263205
-4.231687 2.223644 -1.792504
-4.391249 2.025158 -1.790249
-9.439865 2.619302 -1.805242
-9.929325 2.210601 -1.785453
-4.605220 1.747597 -1.780630
-4.814015 1.545952 -1.774865
-3.983615 1.614088 -1.785054
-4.132774 1.428013 -1.778308
-5.045727 1.251862 -1.777796
-5.266518 1.028466 -1.777153
-4.311341 1.162930 -1.773812
-4.520553 0.969480 -1.778486
-6.075875 3.172147 -1.849116
-6.405284 2.938746 -1.837601
-4.963002 2.744822 -1.806073
-5.141617 2.498597 -1.795423
-6.641036 2.535714 -1.806314
-7.026214 2.266285 -1.807593
-5.399154 2.195355 -1.787054
-5.707509 1.972967 -1.796932
-7.386263 1.875313 -1.790960
-7.751585 1.548092 -1.780533
-5.995526 1.645424 -1.793634
-6.272987 1.380010 -1.791231
-10.013851 5.233585 -1.898827
-10.710833 4.871024 -1.873681
-7.609406 4.176665 -1.879116
-8.000436 3.855706 -1.856084
-11.321370 4.341196 -1.849157
-12.171826 3.963998 -1.825230
-8.432185 3.437895 -1.838814
-8.900151 3.083311 -1.821445
-12.993519 6.845333 -1.919909
-13.689635 6.276141 -1.879516
-1.398445 0.374945 0.273862
-1.393101 0.342695 0.285007
-14.584147 5.669712 -1.843820
-15.734533 5.168478 -1.796022
-10.365675 4.271290 -1.853997
-10.938280 3.838950 -1.826075
-16.936449 4.472305 -1.755457
-18.124666 3.754395 -1.716589
-11.671709 3.319501 -1.801455
-12.343917 2.825657 -1.779226
-1.156957 0.581519 0.156616
-33.696129 15.404918 -0.946667
-19.388889 10.727861 -1.890000
-1.258611 0.635172 0.094244
-33.065269 12.942232 -0.587125
-69.216927 22.661880 -0.753909
-24.850664 10.291959 -1.852318
-27.847464 9.751053 -1.769891
-32.383625 8.598103 0.038596
-57.204952 11.839728 0.485915
-31.577862 9.067714 -1.693379
-34.843636 7.951293 -1.612825
-1.211163 0.613969 0.291486
-1.268164 0.610037 0.309900
-17.253746 9.547326 0.493437
-1.273456 0.643776 0.237483
-1.281594 0.475056 0.316699
-1.365562 0.475110 0.336462
-1.286868 0.508021 0.248070
-1.353213 0.502175 0.263205
-4.219790 2.234304 -1.790222
-4.394972 2.043578 -1.794761
-9.424042 2.646804 -1.803676
-9.945343 2.246922 -1.789935
-4.596241 1.760708 -1.779156
-4.807355 1.560501 -1.774147
-3.968446 1.622403 -1.780067
-4.140359 1.445130 -1.784025
-5.043583 1.268173 -1.778497
-5.254031 1.043220 -1.773748
-4.307667 1.176469 -1.773812
-4.521091 0.984441 -1.780042
-6.062490 3.189420 -1.847991
-6.387272 2.954847 -1.834877
-4.965877 2.766889 -1.810669
-5.130337 2.513089 -1.794126
-6.638426 2.558665 -1.807912
-7.020900 2.288941 -1.808107
-5.399236 2.215218 -1.789592
-5.713873 1.995224 -1.801252
-7.391585 1.901443 -1.793929
-7.752399 1.573577 -1.781959
-6.003181 1.667881 -1.797833
-6.263013 1.398482 -1.789487
-10.013012 5.273309 -1.902035
-10.690096 4.902196 -1.872665
-7.584337 4.193918 -1.875925
-7.986525 3.879974 -1.855643
-11.324224 4.383189 -1.852080
-12.161192 4.002832 -1.825534
-8.428563 3.467363 -1.840522
-8.897818 3.113823 -1.823084
-13.006878 6.904742 -1.925674
-13.794013 6.376256 -1.898558
-1.397260 0.379337 0.273862
-1.392018 0.347070 0.285007
-14.582865 5.722049 -1.846171
-15.767238 5.234072 -1.802296
-10.359462 4.306871 -1.855455
-10.929881 3.874603 -1.826771
-16.935749 4.529106 -1.757022
-18.122517 3.813352 -1.717627
-11.666907 3.357802 -1.802442
-12.336904 2.864866 -1.779538
-1.155125 0.585151 0.156616
-33.649384 15.511539 -0.946729
-19.375946 10.800377 -1.892269
-18.312323 8.921519 -1.508700
-33.597046 13.272734 -0.600920
-68.642204 22.712929 -0.746913
-24.856833 10.386163 -1.855533
-27.829865 9.843139 -1.770829
-32.381557 8.706570 0.038466
-57.165516 12.018977 0.485905
-31.606728 9.183636 -1.696851
-34.863251 8.071050 -1.615169
-1.209228 0.617771 0.291486
-1.266241 0.614018 0.309900
-17.204466 9.590749 0.493116
-1.271427 0.647774 0.237483
-1.280095 0.479080 0.316699
-1.364063 0.479398 0.336462
-1.285266 0.512061 0.248070
-87.283241 30.949366 4.016788
-4.220886 2.251948 -1.794024
-4.376755 2.051932 -1.789496
-9.445842 2.685059 -1.809938
-9.936318 2.277722 -1.789562
-4.588957 1.774460 -1.778420
-4.809536 1.577887 -1.777018
-3.983459 1.643309 -1.790040
-4.140975 1.459920 -1.786474
-5.034136 1.282598 -1.776394
-5.263642 1.062262 -1.778516
-4.302186 1.189498 -1.773011
-4.490957 0.992827 -1.768370
-6.047363 3.205734 -1.846305
-6.384946 2.978127 -1.837056
-4.948945 2.777816 -1.807386
-5.129217 2.532513 -1.796720
-6.632149 2.580214 -1.808444
-7.021025 2.313380 -1.810163
-5.390501 2.231436 -1.788958
-5.693203 2.008165 -1.796315
-7.394942 1.927131 -1.796403
-7.758841 1.600242 -1.784811
-5.996077 1.686209 -1.797233
-6.267928 1.420228 -1.792394
-10.010286 5.312151 -1.904887
-10.692553 4.943989 -1.876050
-7.577917 4.221536 -1.877748
-7.977805 3.906752 -1.856526
-11.312235 4.419466 -1.852405
-12.144802 4.039778 -1.824926
-8.432047 3.499859 -1.843938
-8.895381 3.144351 -1.824723
-13.091475 7.002698 -1.943259
-13.843991 6.452075 -1.909322
-1.396062 0.383725 0.273862
-1.390921 0.351441 0.285007
-14.588767 5.777365 -1.849568
-15.756365 5.285466 -1.803020
-10.336822 4.335571 -1.853633
-10.930645 3.913539 -1.829208
-16.929108 4.584378 -1.757917
-18.118233 3.871919 -1.718457
-11.673337 3.399439 -1.805402
-12.352852 2.909446 -1.783594
-1.153280 0.588777 0.156616
-33.567844 15.602033 -0.945607
-19.347126 10.864127 -1.892836
-18.370121 9.021061 -1.516787
-33.805851 13.478366 -0.606966
-68.564804 22.926563 -0.746834
-24.849794 10.475072 -1.857676
-27.840160 9.945251 -1.773777
-32.406136 8.822482 0.038194
-57.190071 12.211847 0.486212
-31.652414 9.304908 -1.701365
-34.919407 8.199656 -1.619448
-1.207281 0.621567 0.291486
-1.264306 0.617993 0.309900
-17.196901 9.657511 0.493495
-1.269386 0.651765 0.237483
-1.278584 0.483099 0.316699
-1.362550 0.483681 0.336462
-1.283651 0.516096 0.248070
-1.350031 0.510668 0.263205
-4.207293 2.261658 -1.790983
-4.375327 2.068020 -1.791752
-9.426060 2.711437 -1.807590
-9.942519 2.312007 -1.792177
-4.586817 1.790238 -1.779893
-4.790357 1.588362 -1.771276
-3.959849 1.648015 -1.780898
-4.122580 1.468105 -1.779941
-5.042761 1.301747 -1.781301
-5.273186 1.081376 -1.783284
-4.303714 1.204521 -1.775412
-4.511215 1.012042 -1.778486
-6.040641 3.226539 -1.847429
-6.380792 3.000609 -1.838691
-4.951675 2.799912 -1.811982
-5.126328 2.551121 -1.798666
-6.632969 2.604592 -1.811106
-7.010051 2.334218 -1.809135
-5.388704 2.250576 -1.790862
-5.708403 2.033609 -1.803721
-7.373876 1.946346 -1.792444
-7.742359 1.622257 -1.781959
-5.985252 1.703448 -1.795433
-6.259702 1.439070 -1.791231
-9.972749 5.332391 -1.900609
-10.687697 4.982531 -1.878081
-7.557836 4.241489 -1.875925
-7.976003 3.936946 -1.859172
-11.303799 4.457166 -1.853379
-12.148926 4.083547 -1.827665
-8.417410 3.524813 -1.843084
-8.889150 3.173587 -1.825542
-13.088559 7.054152 -1.946431
-13.798536 6.483781 -1.905458
-86.079216 25.597998 4.580122
-1.389810 0.355809 0.285007
-14.599988 5.834988 -1.853748
-15.767903 5.344453 -1.806640
-10.339434 4.374956 -1.856913
-10.918297 3.947858 -1.829208
-16.916538 4.638065 -1.758141
-18.129313 3.933846 -1.720949
-11.662601 3.436093 -1.805402
-12.337883 2.946872 -1.782658
-1.151425 0.592397 0.156616
-20.401768 9.571841 -0.493954
-17.411343 9.846241 -1.685222
-18.656235 9.233920 -1.546440
-33.700291 13.559076 -0.605444
-68.554977 23.162941 -0.747705
-24.866293 10.574201 -1.861810
-27.829433 10.040091 -1.775252
-32.414886 8.934364 0.038004
-57.184650 12.398632 0.486375
-31.734001 9.437392 -1.708078
-34.936230 8.319459 -1.621690
-1.205323 0.625357 0.291486
-1.262358 0.621962 0.309900
-17.192568 9.726290 0.493933
-1.267332 0.655749 0.237483
-1.277060 0.487113 0.316699
-1.361024 0.487959 0.336462
-1.282023 0.520126 0.248070
-1.348420 0.514907 0.263205
-4.206654 2.278423 -1.794024
-4.370486 2.082543 -1.792505
-9.434431 2.746013 -1.811112
-9.935206 2.343230 -1.792177
-4.567358 1.799113 -1.774000
-4.785343 1.603403 -1.771276
-3.966363 1.665447 -1.786716
-4.117948 1.481048 -1.779941
-5.029598 1.315167 -1.777796
-5.255021 1.094938 -1.777835
-4.298149 1.217525 -1.774612
-4.493624 1.023018 -1.772261
-6.033848 3.247330 -1.848553
-6.374817 3.022274 -1.839780
-4.933031 2.809798 -1.808043
-5.109814 2.563009 -1.795423
-6.622965 2.624699 -1.810574
-6.997180 2.354398 -1.807593
-5.381608 2.267493 -1.790862
-5.684058 2.045168 -1.797549
-7.373337 1.971021 -1.793929
-7.737224 1.646570 -1.781959
-5.985364 1.723848 -1.797233
-6.260746 1.460008 -1.792975
-9.961140 5.366505 -1.901679
-10.671992 5.016080 -1.878081
-7.561398 4.274845 -1.880483
-7.961846 3.961118 -1.858731
-11.297070 4.495588 -1.854679
-12.139784 4.122954 -1.828273
-8.413487 3.554300 -1.844792
-8.879136 3.201496 -1.825542
-13.123671 7.126505 -1.955944
-13.787055 6.531328 -1.906838
-1.393623 0.392489 0.273862
-1.388685 0.360174 0.285007
-14.601796 5.889023 -1.856622
-15.751034 5.393967 -1.806640
-10.332866 4.410524 -1.858370
-10.909542 3.983485 -1.829904
-16.942083 4.702414 -1.762838
-18.124636 3.992487 -1.721779
-11.666862 3.477258 -1.808033
-12.338170 2.987927 -1.784218
-1.149558 0.596012 0.156616
-20.407755 9.652946 -0.495201
-17.361309 9.890033 -1.683142
-18.429062 9.193988 -1.527739
-33.613071 13.646809 -0.604369
-68.529190 23.394354 -0.748365
-24.843939 10.657001 -1.862728
-27.855892 10.148602 -1.779407
-32.284580 9.007599 0.038536
-57.184483 12.586820 0.486566
-31.734776 9.546276 -1.709930
-34.973999 8.444608 -1.625053
-1.203352 0.629141 0.291486
-1.260398 0.625925 0.309900
-17.205326 9.805068 0.494663
-1.265265 0.659728 0.237483
-1.275523 0.491123 0.316699
-1.359484 0.492232 0.336462
-1.280383 0.524152 0.248070
-1.346796 0.519140 0.263205
-4.197856 2.290734 -1.793264
-4.362247 2.095471 -1.791752
-9.408836 2.770610 -1.807590
-9.937357 2.376694 -1.794045
-4.580650 1.821111 -1.782103
-4.796223 1.623736 -1.777736
-3.956099 1.675742 -1.784222
-4.111554 1.493366 -1.779125
-5.027249 1.331452 -1.778497
-5.253397 1.111824 -1.778516
-4.297820 1.232054 -1.776213
-4.497578 1.038749 -1.775373
-6.037086 3.273643 -1.853052
-6.358333 3.038995 -1.837601
-4.937253 2.832864 -1.813295
-5.110198 2.583280 -1.798666
-6.628984 2.651274 -1.814833
-6.993414 2.377602 -1.808621
-5.362262 2.279143 -1.786419
-5.699094 2.070721 -1.804955
-7.365238 1.993665 -1.793434
-7.724411 1.669255 -1.780057
-5.979919 1.742645 -1.797233
-6.259857 1.480537 -1.794138
-9.966685 5.410032 -1.906313
-10.665096 5.053786 -1.879774
-7.552996 4.301487 -1.881851
-7.947615 3.985244 -1.858290
-11.286549 4.532538 -1.855328
-12.123029 4.159801 -1.827665
-8.395097 3.577631 -1.843084
-8.880082 3.233365 -1.828001
-13.177540 7.209626 -1.968628
-13.764680 6.573756 -1.906562
-88.257622 26.851271 4.699386
-1.387547 0.364534 0.285007
-14.542845 5.918353 -1.850874
-15.771558 5.456345 -1.811466
-10.322566 4.444526 -1.859099
-10.904372 4.020444 -1.831296
-16.932962 4.757233 -1.763509
-18.125599 4.052423 -1.723233
-11.661544 3.515612 -1.809020
-12.326802 3.026204 -1.783906
-1.147680 0.599620 0.156616
-1.240426 0.618538 0.165694
-17.300817 9.927637 -1.679928
-18.425032 9.264338 -1.530098
-33.336971 13.656660 -0.598725
-68.525314 23.633615 -0.749342
-24.854244 10.754042 -1.866403
-27.842611 10.242933 -1.780747
-1.229034 0.321080 0.200556
-57.171989 12.772491 0.486700
-31.758104 9.662236 -1.713171
-35.009396 8.569586 -1.628314
-1.201370 0.632918 0.291486
-1.258425 0.629881 0.309900
-1.265251 0.698531 0.226642
-19.297983 9.724062 0.697171
-1.273974 0.495128 0.316699
-1.357931 0.496501 0.336462
-1.278730 0.528171 0.248070
-1.345158 0.523369 0.263205
-4.198719 2.308409 -1.797066
-4.360659 2.111560 -1.794008
-9.424503 2.807497 -1.812678
-9.935572 2.409274 -1.795165
-4.557686 1.828477 -1.774736
-4.778713 1.634629 -1.772712
-3.962494 1.693235 -1.790040
-4.110278 1.507511 -1.780758
-5.026655 1.348227 -1.779899
-5.259079 1.130252 -1.781922
-4.293929 1.245549 -1.776213
-4.487107 1.051232 -1.772261
-6.025092 3.291665 -1.852489
-6.357439 3.063098 -1.840325
-4.912016 2.838832 -1.806730
-5.107126 2.601874 -1.800612
-6.617053 2.670630 -1.813769
-6.987741 2.400181 -1.809135
-5.362035 2.298997 -1.788958
-5.681828 2.084728 -1.801252
-7.362674 2.017829 -1.794424
-7.741917 1.698433 -1.785762
-5.981726 1.763611 -1.799632
-6.236548 1.495807 -1.788324
-9.963436 5.448900 -1.909164
-10.670533 5.097414 -1.883836
-7.539446 4.325192 -1.881851
-7.943775 4.014565 -1.860495
-11.290527 4.575423 -1.858576
-12.121116 4.201725 -1.829490
-8.392781 3.607870 -1.845219
-8.868041 3.260575 -1.827591
-13.172141 7.260573 -1.971511
-13.792190 6.640085 -1.914014
-88.199562 27.136646 4.700749
-1.386395 0.368892 0.285007
-14.469193 5.941326 -1.843036
-15.746839 5.503258 -1.810501
-10.313959 4.479297 -1.860193
-10.897230 4.056732 -1.832340
-16.940865 4.816964 -1.766193
-18.134125 4.114159 -1.725516
-11.663643 3.556287 -1.811322
-12.315317 3.064443 -1.783594
-1.145791 0.603223 0.156616
-20.052866 9.640143 -0.485038
-17.276434 9.985935 -1.680684
-18.351366 9.299711 -1.525885
-33.164593 13.707769 -0.595590
-68.507393 23.868500 -0.750134
-24.842258 10.841665 -1.868240
-27.858946 10.348377 -1.784232
-1.228019 0.324940 0.200556
-57.180351 12.963073 0.486940
-31.727594 9.761962 -1.713171
-35.034653 8.692478 -1.631065
-1.199375 0.636689 0.291486
-1.256440 0.633832 0.309900
-17.935669 10.372499 0.508035
-19.163874 9.732256 0.694530
-1.272412 0.499128 0.316699
-1.356364 0.500764 0.336462
-1.277064 0.532186 0.248070
-1.343508 0.527592 0.263205
-4.184994 2.317969 -1.794024
-4.354004 2.125249 -1.794008
-9.411884 2.835950 -1.811895
-9.939409 2.443261 -1.797407
-4.553639 1.843494 -1.775473
-4.761182 1.645430 -1.767687
-3.953823 1.704215 -1.788378
-4.107238 1.521041 -1.781575
-5.020590 1.363512 -1.779198
-5.233434 1.142065 -1.773748
-4.284727 1.257453 -1.773812
-4.490963 1.066987 -1.775373
-6.034857 3.321759 -1.859237
-6.351252 3.084725 -1.841415
-4.912844 2.859998 -1.810669
-5.095552 2.616193 -1.799315
-6.605065 2.689938 -1.812704
-6.998447 2.428394 -1.814276
-5.358262 2.317353 -1.790227
-5.680611 2.104527 -1.803104
-7.363760 2.043048 -1.796403
-7.727055 1.720667 -1.783385
-5.974329 1.781842 -1.799032
-6.241124 1.517616 -1.791231
-9.985864 5.502109 -1.917363
-10.663356 5.135168 -1.885528
-7.535922 4.354734 -1.884586
-7.939829 4.043903 -1.862700
-11.283399 4.613874 -1.859875
-12.119057 4.243682 -1.831316
-8.388567 3.637349 -1.846927
-8.866940 3.291801 -1.829641
-13.168280 7.312521 -1.974682
-13.821198 6.707514 -1.921741
-1.389862 0.405606 0.273862
-1.385229 0.373245 0.285007
-14.479746 5.998945 -1.847216
-15.770681 5.567177 -1.815809
-10.290838 4.507711 -1.858370
-10.891810 4.093702 -1.833733
-16.937105 4.873477 -1.767535
-18.128866 4.172884 -1.726347
-11.648643 3.591742 -1.810665
-12.322877 3.107430 -1.786402
-17.316702 9.606981 -0.602255
-19.916285 9.651784 -0.481359
-17.262169 10.050202 -1.682575
-18.112494 9.250625 -1.506004
-33.084465 13.796473 -0.594694
-68.496216 24.106157 -0.751031
-24.829969 10.929317 -1.870077
-27.802000 10.426760 -1.782489
-1.226992 0.328796 0.200556
-57.170528 13.149808 0.487093
-31.710110 9.865751 -1.713981
-35.071110 8.818530 -1.634428
-1.197369 0.640454 0.291486
-1.254442 0.637776 0.309900
-1.260837 0.706467 0.226642
-1.258991 0.671623 0.237483
-1.270838 0.503123 0.316699
-1.354785 0.505023 0.336462
-1.275386 0.536195 0.248070
-1.341843 0.531810 0.263205
-4.177691 2.331105 -1.794024
-4.340636 2.135681 -1.791000
-9.408552 2.867235 -1.813069
-9.937408 2.475886 -1.798528
-4.537520 1.853517 -1.771053
-4.771879 1.665835 -1.774147
-3.946785 1.715893 -1.787547
-4.107580 1.535824 -1.784025
-5.007264 1.376750 -1.775693
-5.237172 1.160092 -1.776472
-4.280756 1.270908 -1.773812
-4.485794 1.080669 -1.774595
-5.995916 3.324771 -1.849678
-6.336335 3.102144 -1.839780
-4.895708 2.870603 -1.807386
-5.092361 2.634774 -1.801260
-6.598361 2.711414 -1.813236
-6.979826 2.446571 -1.811192
-5.350954 2.334174 -1.790227
-5.673971 2.122363 -1.803104
-7.362897 2.067763 -1.797887
-7.734885 1.747888 -1.786713
-5.961405 1.798367 -1.796633
-6.238186 1.537666 -1.791812
-9.951344 5.523863 -1.913798
-10.652495 5.171215 -1.886544
-7.513803 4.373465 -1.882307
-7.930561 4.070599 -1.863582
-11.274315 4.651569 -1.860849
-12.114988 4.285011 -1.832838
-8.375310 3.662897 -1.846500
-8.867563 3.323733 -1.832099
-13.161960 7.336095 -1.975547
-13.849854 6.748236 -1.927813
-1.389223 0.407788 0.273862
-1.384641 0.375421 0.285007
-14.492257 6.030859 -1.850351
-15.773149 5.595906 -1.817257
-10.316114 4.538198 -1.864930
-10.896432 4.114955 -1.835821
-16.938971 4.902851 -1.768654
-18.141674 4.205819 -1.728423
-11.663700 3.616504 -1.814282
-12.321814 3.127746 -1.787026
-17.254486 9.607859 -0.600043
-19.701458 9.586207 -0.474439
-17.292742 10.104486 -1.687680
-17.459105 8.952554 -1.445351
-33.130974 13.877053 -0.596352
-68.529930 24.239029 -0.752035
-20.278696 8.958853 -1.489323
-27.791191 10.472522 -1.782891
-1.226474 0.330723 0.200556
-57.171242 13.244545 0.487198
-31.719339 9.923315 -1.715486
-35.082390 8.879959 -1.635753
-1.196362 0.642334 0.291486
-1.253439 0.639745 0.309900
-1.259725 0.708447 0.226642
-1.257935 0.673600 0.237483
-1.270046 0.505118 0.316699
-1.353990 0.507150 0.336462
-1.274542 0.538198 0.248070
-87.137878 32.915661 4.039003
-4.178851 2.340402 -1.796306
-4.337276 2.142496 -1.791000
-9.420900 2.887226 -1.816591
-9.941135 2.493384 -1.800022
-4.556917 1.869936 -1.780630
-4.769256 1.673328 -1.774147
-3.945748 1.722828 -1.788378
-4.108589 1.543538 -1.785658
-5.003292 1.384104 -1.774992
-5.239017 1.169118 -1.777835
-4.284014 1.279234 -1.776213
-4.482298 1.087289 -1.773817
-6.007421 3.343582 -1.855301
-6.340106 3.116305 -1.842505
-4.892817 2.879255 -1.808043
-5.089900 2.643634 -1.801909
-6.597653 2.723259 -1.814301
-6.981452 2.459439 -1.812734
-5.352483 2.344883 -1.792131
-5.679550 2.134581 -1.806190
-7.363366 2.080392 -1.798877
-7.715070 1.756210 -1.782434
-5.958573 1.807729 -1.796633
-6.233903 1.547009 -1.791231
-9.956391 5.547181 -1.916650
-10.651455 5.191379 -1.887898
-7.511959 4.388223 -1.883674
-7.922421 4.082162 -1.863141
-11.281568 4.675348 -1.863448
-12.108243 4.304035 -1.832838
-8.374906 3.678420 -1.847781
-8.856830 3.335603 -1.830870
-13.223325 7.425035 -1.989673
-13.853498 6.803897 -1.931677
-1.387935 0.412151 0.273862
-1.383455 0.379769 0.285007
-14.387370 6.040141 -1.838072
-15.794762 5.659435 -1.822325
-10.294623 4.567378 -1.863472
-10.868715 4.143587 -1.833037
-16.938732 4.960533 -1.770443
-18.145803 4.266867 -1.730291
-11.654162 3.653723 -1.814611
-12.319582 3.168393 -1.788274
-17.274723 9.690437 -0.602419
-19.531172 9.579559 -0.469575
-17.370649 10.223539 -1.699782
-17.487587 9.036561 -1.450742
-33.212418 14.034082 -0.599397
-68.498634 24.470335 -0.752668
-24.860115 11.082819 -1.876966
-27.804796 10.577477 -1.786242
-1.225429 0.334574 0.200556
-57.179977 13.435965 0.487447
-31.718462 10.032576 -1.717337
-35.096893 9.001016 -1.637995
-1.194338 0.646089 0.291486
-1.251423 0.643680 0.309900
-1.257494 0.712401 0.226642
-18.825672 9.747640 0.687835
-1.268453 0.509106 0.316699
-1.352390 0.511402 0.336462
-1.272845 0.542199 0.248070
-87.073257 33.204193 4.040731
-4.176296 2.356272 -1.798587
-4.338841 2.160197 -1.794761
-9.404295 2.914467 -1.815025
-9.942779 2.526999 -1.801890
-4.532164 1.876319 -1.772526
-4.756925 1.685845 -1.771276
-3.940316 1.735216 -1.788378
-4.093453 1.552614 -1.780758
-5.000721 1.400330 -1.775693
-5.215123 1.181100 -1.770342
-4.276470 1.291607 -1.774612
-4.489610 1.103945 -1.778486
-5.983522 3.354879 -1.850803
-6.337194 3.139599 -1.844684
-4.883747 2.894612 -1.808043
-5.079889 2.658741 -1.801260
-6.596173 2.746964 -1.816431
-6.971867 2.480718 -1.812220
-5.336433 2.357816 -1.788958
-5.662126 2.148410 -1.802487
-7.353071 2.102437 -1.797887
-7.713303 1.781301 -1.783385
-5.965615 1.830410 -1.800832
-6.236444 1.568423 -1.793556
-9.920062 5.567795 -1.912729
-10.643949 5.229142 -1.889590
-7.508188 4.417757 -1.886409
-7.921694 4.113288 -1.866229
-11.268642 4.711532 -1.863772
-12.120728 4.351351 -1.837098
-8.374014 3.709491 -1.850343
-8.864624 3.370318 -1.834968
-13.249841 7.494881 -1.998033
-13.904902 6.883292 -1.942992
-1.386634 0.416509 0.273862
-1.382255 0.384113 0.285007
-14.474149 6.130335 -1.853225
-15.786245 5.712389 -1.823531
-10.296363 4.606961 -1.866752
-10.875882 4.185446 -1.836865
-16.940208 5.018826 -1.772456
-18.145859 4.327059 -1.731745
-11.653903 3.693917 -1.816585
-12.324870 3.211032 -1.790770
-20.908869 11.821908 -0.775136
-19.321676 9.552490 -0.463341
-17.343580 10.281110 -1.700349
-17.466190 9.095125 -1.451416
-32.986126 14.060596 -0.594963
-62.705795 22.625593 -0.672467
-24.845173 11.169874 -1.878650
-27.804974 10.677619 -1.788655
-1.224372 0.338422 0.200556
-57.168613 13.622928 0.487600
-31.701998 10.137044 -1.718263
-35.087780 9.116235 -1.639014
-1.192302 0.649838 0.291486
-1.249395 0.647608 0.309900
-1.255249 0.716348 0.226642
-1.253678 0.681490 0.237483
-1.266847 0.513088 0.316699
-1.350776 0.515648 0.336462
-1.271136 0.546195 0.248070
-1.337626 0.542332 0.263205
-4.167270 2.368457 -1.797827
-4.337016 2.176283 -1.797017
-9.419404 2.951683 -1.820113
-9.936695 2.558706 -1.802263
-4.553638 1.902159 -1.784313
-4.769213 1.706980 -1.778454
-3.933188 1.746837 -1.787547
-4.102227 1.570607 -1.787291
-4.999896 1.417072 -1.777095
-5.231568 1.202012 -1.777835
-4.274141 1.305580 -1.775412
-4.464638 1.112818 -1.769148
-5.982959 3.379361 -1.854176
-6.322125 3.156931 -1.843049
-4.874630 2.909940 -1.808043
-5.078221 2.678186 -1.803855
-6.596385 2.771437 -1.819093
-6.971323 2.505196 -1.814276
-5.334186 2.376907 -1.790862
-5.676702 2.174261 -1.809893
-7.346430 2.125525 -1.797887
-7.703883 1.804650 -1.782434
-5.952557 1.846850 -1.798432
-6.222204 1.585681 -1.790650
-9.897389 5.596013 -1.911659
-10.652225 5.274745 -1.894329
-7.502635 4.446310 -1.888688
-7.907002 4.137255 -1.865788
-11.264686 4.751534 -1.865721
-12.112576 4.391416 -1.838011
-8.369447 3.738987 -1.852051
-8.857652 3.399541 -1.835787
-13.279483 7.566939 -2.006970
-13.908042 6.939286 -1.946856
-1.385319 0.420863 0.273862
-1.381041 0.388454 0.285007
-14.586011 6.232089 -1.872036
-15.762623 5.759923 -1.822807
-10.294373 4.644979 -1.869303
-10.866353 4.221014 -1.837562
-16.937677 5.076039 -1.774022
-18.143782 4.386839 -1.732990
-11.644116 3.731119 -1.816913
-12.312811 3.249239 -1.790458
-20.722383 11.802328 -0.768089
-19.157299 9.546444 -0.458665
-1.223252 0.702172 0.080438
-17.479910 9.172124 -1.455460
-32.978516 14.179988 -0.595859
-62.196529 22.663141 -0.666316
-24.829929 11.256957 -1.880334
-27.799206 10.775721 -1.790665
-1.223303 0.342267 0.200556
-57.178028 13.815137 0.487859
-31.706079 10.248293 -1.720462
-35.099537 9.237078 -1.641154
-1.190255 0.653581 0.291486
-1.247354 0.651530 0.309900
-1.252993 0.720288 0.226642
-18.530294 9.743194 0.681824
-1.265229 0.517066 0.316699
-1.349150 0.519889 0.336462
-1.269413 0.550186 0.248070
-1.335915 0.546532 0.263205
-4.156608 2.379683 -1.796306
-4.325182 2.187416 -1.794761
-9.397007 2.977082 -1.817374
-9.938119 2.592368 -1.804131
-4.520285 1.904759 -1.772526
-4.755033 1.718829 -1.774865
-3.932647 1.761447 -1.790040
-4.092152 1.581544 -1.784841
-4.993621 1.432249 -1.776394
-5.214932 1.215517 -1.773067
-4.266523 1.317900 -1.773812
-4.482585 1.132133 -1.778486
-5.975642 3.400053 -1.855301
-6.322509 3.181932 -1.846318
-4.868692 2.927202 -1.809356
-5.066432 2.692367 -1.802558
-6.587645 2.792149 -1.819093
-6.967058 2.528393 -1.815304
-5.338778 2.399150 -1.795305
-5.666288 2.190729 -1.808658
-7.358295 2.154104 -1.802835
-7.715198 1.832831 -1.786713
-5.957633 1.869015 -1.802032
-6.213482 1.604281 -1.789487
-9.883174 5.629037 -1.912373
-10.628539 5.304682 -1.892975
-7.490298 4.470863 -1.889144
-7.902606 4.166601 -1.867993
-11.255145 4.789232 -1.866695
-12.104293 4.431478 -1.838924
-8.361216 3.766880 -1.852905
-8.839618 3.424546 -1.834148
-13.298515 7.633321 -2.014177
-13.882633 6.981168 -1.946304
-95.557243 31.220093 5.102742
-1.379814 0.392790 0.285007
-14.524508 6.259760 -1.866027
-15.695996 5.791617 -1.816533
-10.270790 4.673202 -1.867481
-10.851205 4.254414 -1.837214
-16.944462 5.136173 -1.776706
-18.135706 4.445226 -1.733613
-11.641716 3.770739 -1.818558
-12.314000 3.290940 -1.792330
-1.135198 0.622930 0.156616
-19.018181 9.551979 -0.454861
-19.268364 11.589824 -1.921009
-17.473930 9.239069 -1.457650
-32.975983 14.301844 -0.596889
-61.702690 22.703201 -0.660376
-24.810759 11.342379 -1.881712
-27.800541 10.876781 -1.793212
-1.222221 0.346109 0.200556
-57.169315 14.003233 0.488031
-31.713573 10.360894 -1.722893
-35.089649 9.352423 -1.642173
-1.188196 0.657317 0.291486
-1.245301 0.655446 0.309900
-1.250724 0.724221 0.226642
-18.329868 9.711702 0.677452
-1.263599 0.521038 0.316699
-1.347510 0.524125 0.336462
-1.267679 0.554171 0.248070
-1.334192 0.550726 0.263205
-4.155501 2.396460 -1.799348
-4.321601 2.202658 -1.796265
-9.402540 3.011413 -1.820504
-9.933729 2.624569 -1.804878
-4.533060 1.927050 -1.780630
-4.744339 1.731864 -1.772712
-3.923788 1.772274 -1.788378
-4.068410 1.587204 -1.775858
-4.994485 1.449522 -1.778497
-5.212921 1.232317 -1.773748
-4.267601 1.332966 -1.776213
-4.452195 1.139508 -1.766814
-5.973240 3.423611 -1.858112
-6.302165 3.196592 -1.843049
-4.875587 2.952341 -1.815921
-5.059622 2.709155 -1.803206
-6.578841 2.812829 -1.819093
-6.957263 2.549608 -1.814790
-5.326042 2.413538 -1.793401
-5.650502 2.205098 -1.805572
-7.345924 2.175539 -1.801351
-7.699952 1.854814 -1.784336
-5.948100 1.886552 -1.800832
-6.197292 1.620932 -1.785999
-9.848394 5.650223 -1.908808
-10.622399 5.343335 -1.895006
-7.476216 4.494371 -1.889144
-7.891204 4.192316 -1.868434
-11.245481 4.826912 -1.867670
-12.086601 4.468117 -1.838315
-8.349341 3.793127 -1.852905
-8.837942 3.455836 -1.836197
-13.320683 7.701889 -2.021960
-13.864168 7.026533 -1.946856
-1.382647 0.429559 0.273862
-1.378573 0.397123 0.285007
-14.575641 6.336306 -1.876217
-15.625600 5.821574 -1.809777
-10.277483 4.715336 -1.871855
-10.848783 4.292807 -1.839302
-16.943438 5.194064 -1.778496
-18.140965 4.506950 -1.735689
-11.629812 3.807295 -1.818558
-12.316956 3.333194 -1.794514
-1.133235 0.626493 0.156616
-18.873861 9.554040 -0.450871
-19.238665 11.654436 -1.921765
-17.471218 9.307941 -1.460177
-33.033443 14.450322 -0.599397
-61.473564 22.838499 -0.658158
-24.803965 11.433655 -1.884162
-27.790371 10.973571 -1.794954
-1.221128 0.349947 0.200556
-57.171627 14.194317 0.488261
-31.749107 10.483068 -1.727060
-35.110245 9.476112 -1.644822
-1.186125 0.661046 0.291486
-1.243236 0.659355 0.309900
-1.248442 0.728146 0.226642
-1.247199 0.693276 0.237483
-1.261955 0.525005 0.316699
-1.345857 0.528355 0.336462
-1.265931 0.558151 0.248070
-1.332455 0.554915 0.263205
-4.143168 2.406689 -1.797066
-4.314659 2.216224 -1.796265
-9.391166 3.040328 -1.820113
-9.940629 2.659789 -1.807866
-4.513343 1.935348 -1.774736
-4.745894 1.749307 -1.775583
-3.923153 1.786885 -1.790872
-4.082134 1.607224 -1.784841
-4.984523 1.463596 -1.776394
-5.194377 1.245252 -1.768298
-4.258158 1.344681 -1.773812
-4.464667 1.157560 -1.773817
-5.949186 3.434633 -1.853614
-6.295525 3.218115 -1.844139
-4.853421 2.959716 -1.810669
-5.047747 2.723256 -1.801909
-6.575273 2.835793 -1.820690
-6.967369 2.578096 -1.819931
-5.323598 2.432647 -1.795305
-5.657731 2.228355 -1.810510
-7.346470 2.200856 -1.803330
-7.699754 1.880360 -1.785762
-5.938515 1.904049 -1.799632
-6.203280 1.643289 -1.789487
-9.820385 5.675204 -1.906669
-10.617880 5.382893 -1.897376
-7.472036 4.523918 -1.891879
-7.881439 4.218917 -1.869316
-11.232069 4.863006 -1.867995
-12.087330 4.511566 -1.840750
-8.349803 3.825071 -1.855894
-8.837978 3.487867 -1.838656
-13.293004 7.741701 -2.021384
-13.831432 7.064666 -1.945200
-1.381290 0.433901 0.273862
-1.377319 0.401452 0.285007
-14.673614 6.434013 -1.893199
-15.571902 5.857408 -1.805192
-10.260837 4.746771 -1.871490
-10.838903 4.328321 -1.839998
-16.959293 5.257320 -1.782298
-18.132505 4.565369 -1.736312
-11.643997 3.852544 -1.823162
-12.321672 3.376019 -1.797009
-1.131261 0.630050 0.156616
-18.738626 9.559819 -0.447192
-19.218939 11.725210 -1.923656
-17.475277 9.380650 -1.463379
-33.020802 14.568582 -0.600203
-61.457687 23.052559 -0.658950
-21.046165 9.777431 -1.568934
-27.792845 11.075566 -1.797635
-1.220023 0.353781 0.200556
-57.179127 14.387013 0.488519
-31.714125 10.582127 -1.726944
-35.114986 9.595823 -1.646657
-1.184042 0.664769 0.291486
-1.241158 0.663257 0.309900
-1.246149 0.732065 0.226642
-1.245015 0.697190 0.237483
-1.260300 0.528967 0.316699
-1.344190 0.532581 0.336462
-1.264172 0.562125 0.248070
-1.330705 0.559099 0.263205
-4.138770 2.421580 -1.798587
-4.309326 2.230611 -1.797017
-9.392744 3.073506 -1.822461
-9.937918 2.692533 -1.808987
-4.522564 1.956242 -1.781366
-4.738622 1.763566 -1.774865
-3.905981 1.793817 -1.785054
-4.061759 1.614064 -1.777492
-4.981693 1.479791 -1.777095
-5.223368 1.269399 -1.780559
-4.253912 1.358052 -1.773812
-4.461009 1.171581 -1.773817
-5.941678 3.455248 -1.854738
-6.292239 3.241378 -1.846318
-4.845704 2.975945 -1.811325
-5.057496 2.748957 -1.809044
-6.553977 2.851008 -1.816963
-6.950170 2.596622 -1.817360
-5.317648 2.450161 -1.795939
-5.632994 2.239168 -1.804338
-7.346931 2.226198 -1.805309
-7.703245 1.906844 -1.788139
-5.939754 1.925080 -1.802032
-6.196236 1.662281 -1.788906
-9.860256 5.739822 -1.918789
-10.600917 5.416224 -1.897376
-7.452807 4.544313 -1.890511
-7.878463 4.249184 -1.871963
-11.216736 4.898269 -1.867995
-12.078651 4.551599 -1.841663
-8.328887 3.847162 -1.853759
-8.825157 3.514896 -1.838246
-13.268617 7.783424 -2.021384
-13.862051 7.135192 -1.953479
-1.379920 0.438238 0.273862
-1.376051 0.405777 0.285007
-14.671453 6.488130 -1.895811
-15.534853 5.899281 -1.802779
-10.249433 4.780653 -1.872219
-10.836222 4.366744 -1.842087
-16.969231 5.318935 -1.785430
-18.141212 4.628181 -1.738804
-11.622488 3.885958 -1.821518
-12.307199 3.413664 -1.796386
-1.129276 0.633601 0.156616
-18.596426 9.561196 -0.443264
-19.226084 11.812681 -1.928573
-17.470278 9.448744 -1.465737
-33.080788 14.719469 -0.602801
-61.433601 23.263920 -0.659637
-18.954147 8.875227 -1.394097
-27.800508 11.179914 -1.800718
-1.218905 0.357612 0.200556
-32.272358 8.239712 0.365698
-31.680721 10.681708 -1.726944
-35.121246 9.716186 -1.648593
-1.181948 0.668486 0.291486
-1.239069 0.667153 0.309900
-1.243842 0.735976 0.226642
-17.773119 9.633090 0.665429
-1.258632 0.532924 0.316699
-1.342510 0.536801 0.336462
-1.262399 0.566094 0.248070
-1.328942 0.563276 0.263205
-4.129553 2.433622 -1.797827
-4.299002 2.242442 -1.795513
-9.377460 3.101137 -1.821287
-9.938890 2.726316 -1.810855
-4.506194 1.965925 -1.776946
-4.717301 1.772616 -1.768405
-3.900326 1.806079 -1.785054
-4.061763 1.628824 -1.779941
-4.977020 1.495434 -1.777095
-5.221182 1.286243 -1.781240
-4.242661 1.369117 -1.770610
-4.460872 1.186517 -1.775373
-5.947316 3.483660 -1.860361
-6.290581 3.265531 -1.849043
-4.829923 2.987150 -1.808699
-5.032200 2.755820 -1.802558
-6.541463 2.870023 -1.815898
-6.949222 2.621147 -1.819417
-5.309925 2.466855 -1.795939
-5.643619 2.263860 -1.810510
-7.338048 2.248694 -1.804814
-7.704759 1.932901 -1.790040
-5.937298 1.944934 -1.803232
-6.187286 1.680750 -1.787743
-9.869303 5.786759 -1.924492
-10.597884 5.456689 -1.900084
-7.440151 4.568729 -1.890967
-7.865075 4.273914 -1.871963
-11.219335 4.941475 -1.871242
-12.071687 4.592319 -1.842880
-8.325603 3.877459 -1.855894
-8.819525 3.544780 -1.839476
-13.276443 7.844251 -2.026861
-13.971561 7.246891 -1.974178
-1.378537 0.442571 0.273862
-1.374769 0.410098 0.285007
-14.692617 6.552830 -1.901821
-15.531086 5.953716 -1.804709
-10.253918 4.822078 -1.876228
-10.824278 4.401501 -1.842435
-16.961908 5.375231 -1.786548
-18.157408 4.693068 -1.742125
-11.619561 3.925626 -1.823162
-12.313540 3.457080 -1.799193
-1.127280 0.637145 0.156616
-18.468615 9.569109 -0.439835
-19.207491 11.884564 -1.930652
-17.484289 9.527361 -1.469949
-32.985149 14.801180 -0.601592
-61.410652 23.476049 -0.660349
-18.845074 8.896317 -1.387207
-27.794847 11.279171 -1.802862
-1.217776 0.361440 0.200556
-32.381882 8.376006 0.366368
-31.849184 10.850226 -1.739328
-35.154045 9.844196 -1.651955
-1.179842 0.672195 0.291486
-1.236967 0.671042 0.309900
-1.241524 0.739880 0.226642
-17.563644 9.591359 0.660784
-1.256951 0.536875 0.316699
-1.340817 0.541016 0.336462
-1.260615 0.570057 0.248070
-1.327166 0.567448 0.263205
-4.126645 2.449441 -1.800108
-4.296871 2.258496 -1.797769
-9.375106 3.133086 -1.822852
-9.941643 2.760650 -1.813096
-4.506788 1.983103 -1.779893
-4.718704 1.790039 -1.771276
-3.911069 1.826118 -1.793365
-4.049841 1.638877 -1.776675
-4.988402 1.516043 -1.783405
-5.198850 1.298172 -1.774429
-4.245296 1.384752 -1.773812
-4.455341 1.200055 -1.774595
-5.951189 3.511160 -1.865421
-6.292251 3.291476 -1.852857
-4.828510 3.007338 -1.811982
-5.028500 2.774333 -1.804503
-6.537695 2.892917 -1.817496
-6.942762 2.643646 -1.819931
-5.302149 2.483523 -1.795939
-5.624114 2.276634 -1.806190
-7.329100 2.271155 -1.804319
-7.696764 1.956622 -1.789565
-5.923924 1.961147 -1.800832
-6.194905 1.703679 -1.791812
-9.866306 5.826775 -1.927701
-10.596455 5.498090 -1.903130
-7.424108 4.591050 -1.890511
-7.858466 4.302327 -1.873727
-11.209163 4.979110 -1.872217
-12.062742 4.632333 -1.843793
-8.322212 3.907771 -1.858029
-8.815612 3.575391 -1.841115
-13.250031 7.884910 -2.026573
-14.011977 7.323680 -1.984114
-1.377140 0.446900 0.273862
-1.373474 0.414415 0.285007
-14.735204 6.627529 -1.910965
-15.497480 5.996773 -1.802779
-10.229843 4.850038 -1.874405
-10.808571 4.434744 -1.842087
-16.952503 5.430934 -1.787443
-18.156048 4.753601 -1.743579
-11.614633 3.964679 -1.824478
-12.298816 3.494678 -1.798569
-1.125273 0.640684 0.156616
-18.285965 9.547710 -0.434473
-19.180189 11.951182 -1.931787
-17.473499 9.592772 -1.471802
-32.887493 14.881627 -0.600338
-1.286260 0.523629 0.189211
-18.788235 8.941734 -1.384758
-27.788830 11.378516 -1.805007
-1.216634 0.365264 0.200556
-32.299294 8.463048 0.366090
-31.894207 10.977592 -1.744189
-35.047977 9.933411 -1.647981
-1.177724 0.675899 0.291486
-1.234852 0.674925 0.309900
-1.239194 0.743777 0.226642
-17.380907 9.562840 0.656822
-1.255258 0.540821 0.316699
-1.339111 0.545226 0.336462
-1.258818 0.574015 0.248070
-1.325376 0.571615 0.263205
-4.123676 2.465268 -1.802389
-4.289754 2.271985 -1.797769
-9.363359 3.161894 -1.822461
-9.927241 2.790291 -1.811975
-4.492058 1.993437 -1.776210
-4.716551 1.806173 -1.772712
-3.887260 1.829765 -1.784222
-4.059921 1.657714 -1.784025
-4.983614 1.531709 -1.783405
-5.205697 1.317214 -1.778516
-4.235713 1.396332 -1.771411
-4.451549 1.214048 -1.774595
-5.920372 3.518001 -1.858674
-6.263116 3.301427 -1.846863
-4.812654 3.018449 -1.809356
-5.016443 2.788295 -1.803206
-6.530331 2.914235 -1.818028
-6.936228 2.666133 -1.820445
-5.301166 2.503439 -1.798478
-5.627518 2.298564 -1.809893
-7.331164 2.297099 -1.806793
-7.701877 1.983665 -1.792417
-5.921347 1.980975 -1.802032
-6.193213 1.724145 -1.792975
-9.849639 5.858755 -1.928057
-10.586123 5.534995 -1.904484
-7.414598 4.617456 -1.891879
-7.851753 4.330745 -1.875491
-11.197062 5.015925 -1.872866
-12.053661 4.672342 -1.844705
-8.309895 3.933899 -1.858029
-8.809775 3.605280 -1.842344
-13.174322 7.895886 -2.017925
-14.015214 7.381465 -1.988254
-93.644363 32.560665 5.035273
-1.372165 0.418728 0.285007
-14.721531 6.677075 -1.912010
-15.535930 6.067729 -1.810259
-10.221644 4.885559 -1.875863
-10.812800 4.476169 -1.845567
-16.956148 5.490927 -1.789903
-18.150642 4.813149 -1.744617
-11.603984 4.001793 -1.824807
-12.310573 3.539802 -1.802313
-1.123255 0.644216 0.156616
-18.188610 9.569821 -0.432104
-19.174570 12.031518 -1.935379
-17.467710 9.661087 -1.474161
-1.180844 0.511248 0.179419
-1.284609 0.527667 0.189211
-18.727713 8.985145 -1.382002
-27.797228 11.484005 -1.808223
-1.215481 0.369084 0.200556
-32.291882 8.569585 0.366186
-31.959492 11.112563 -1.750324
-33.824043 9.702333 -1.584700
-1.175595 0.679595 0.291486
-1.232726 0.678801 0.309900
-1.236851 0.747666 0.226642
-17.216022 9.542930 0.653315
-1.253553 0.544762 0.316699
-1.337392 0.549430 0.336462
-1.257008 0.577967 0.248070
-1.323574 0.575776 0.263205
-4.112752 2.476284 -1.800869
-4.276037 2.281995 -1.794761
-9.381200 3.200866 -1.828331
-9.927884 2.824127 -1.813843
-4.501011 2.014455 -1.782840
-4.703875 1.818324 -1.769840
-3.889686 1.845917 -1.788378
-4.056386 1.671145 -1.784841
-4.975207 1.546227 -1.782003
-5.188767 1.330354 -1.773748
-4.239982 1.412578 -1.775412
-4.431705 1.223703 -1.767592
-5.925724 3.546500 -1.864297
-6.259525 3.324672 -1.849043
-4.814296 3.040666 -1.813951
-5.014279 2.807708 -1.805801
-6.528165 2.937926 -1.820158
-6.929623 2.688603 -1.820959
-5.300111 2.523371 -1.801017
-5.611460 2.312644 -1.806807
-7.309149 2.315386 -1.802835
-7.688081 2.005913 -1.790516
-5.924119 2.002659 -1.805031
-6.180391 1.741546 -1.790650
-9.839616 5.894744 -1.929839
-10.594872 5.581947 -1.909562
-7.404996 4.643845 -1.893247
-7.839817 4.356332 -1.875933
-11.197420 5.058421 -1.875789
-12.044452 4.712335 -1.845618
-8.311583 3.966756 -1.861445
-8.812898 3.638875 -1.845623
-13.117290 7.917749 -2.012447
-14.084771 7.474522 -2.002881
-1.374305 0.455543 0.273862
-1.370843 0.423037 0.285007
-14.770753 6.755568 -1.922199
-15.490916 6.106355 -1.806881
-10.222172 4.925366 -1.879143
-10.807779 4.513892 -1.847308
-16.984123 5.559074 -1.795272
-18.156572 4.875795 -1.746900
-11.593217 4.038882 -1.825136
-12.310779 3.581748 -1.804185
-1.121225 0.647741 0.156616
-18.013533 9.550319 -0.426991
-19.160225 12.106616 -1.938027
-17.459921 9.728498 -1.476352
-1.179232 0.514956 0.179419
-1.282945 0.531700 0.189211
-1.135108 0.521849 0.116823
-27.801546 11.588133 -1.811172
-1.214315 0.372901 0.200556
-32.287979 8.677203 0.366301
-31.933838 11.216228 -1.750902
-33.526703 9.731356 -1.570535
-1.173454 0.683285 0.291486
-1.230587 0.682671 0.309900
-1.234496 0.751548 0.226642
-17.170235 9.588217 0.652905
-1.251836 0.548698 0.316699
-1.335659 0.553629 0.336462
-19.729523 9.572328 0.896619
-1.321759 0.579931 0.263205
-4.108105 2.491128 -1.802389
-4.278668 2.300631 -1.799273
-9.374803 3.231611 -1.829114
-9.920852 2.855842 -1.814217
-4.477753 2.020847 -1.775473
-4.696396 1.832423 -1.769122
-3.880595 1.856538 -1.786716
-4.056185 1.685953 -1.787291
-4.975677 1.563561 -1.784106
-5.184562 1.346648 -1.773748
-4.230322 1.424107 -1.773011
-4.436724 1.240049 -1.771483
-5.903071 3.558120 -1.860361
-6.252449 3.346124 -1.850132
-4.799952 3.052712 -1.811982
-5.000477 2.820681 -1.803855
-6.524159 2.960829 -1.821755
-6.921142 2.710360 -1.820959
-5.287038 2.537526 -1.799113
-5.625283 2.338937 -1.814213
-7.314743 2.342518 -1.806298
-7.689261 2.032017 -1.792417
-5.906980 2.017516 -1.801432
-6.178574 1.761989 -1.791812
-9.839558 5.936854 -1.933760
-10.457014 5.551692 -1.886205
-7.411734 4.680665 -1.899172
-7.826092 4.380940 -1.875933
-11.177884 5.091930 -1.875140
-12.031426 4.750872 -1.845923
-8.292047 3.989441 -1.859737
-8.797805 3.665048 -1.844803
-13.055186 7.936236 -2.006105
-14.118917 7.549460 -2.011988
-1.372867 0.459858 0.273862
-1.369508 0.427341 0.285007
-14.780046 6.816100 -1.926641
-15.580567 6.198118 -1.821118
-10.206649 4.957454 -1.879143
-10.797179 4.549343 -1.848004
-16.964691 5.611773 -1.795048
-18.146927 4.934365 -1.747523
-11.595347 4.080551 -1.827767
-12.297571 3.619849 -1.803873
-1.119185 0.651260 0.156616
-17.900515 9.562695 -0.424061
-19.132172 12.173171 -1.939161
-17.465794 9.803735 -1.479890
-82.009178 38.087536 -1.817179
-61.510521 24.404291 -0.666025
-18.292910 8.917771 -1.349698
-27.774208 11.679272 -1.811842
-68.590218 22.821253 -0.156252
-32.274075 8.782255 0.366368
-31.953003 11.335892 -1.754259
-33.333031 9.788909 -1.561873
-1.171302 0.686968 0.291486
-1.228437 0.686533 0.309900
-1.232129 0.755423 0.226642
-17.180140 9.664602 0.653953
-1.250106 0.552627 0.316699
-1.333913 0.557822 0.336462
-19.726273 9.647463 0.897566
-1.319930 0.584081 0.263205
-4.098686 2.503048 -1.801629
-4.264883 2.310564 -1.796265
-9.370155 3.262994 -1.830288
-9.930711 2.892440 -1.817953
-4.491642 2.044253 -1.784313
-4.695838 1.849193 -1.771276
-3.866575 1.864719 -1.782560
-4.042430 1.695206 -1.783208
-4.974304 1.580336 -1.785508
-5.189410 1.365277 -1.777153
-4.217169 1.434387 -1.769010
-4.429255 1.252998 -1.769926
-5.913145 3.589674 -1.867670
-6.245301 3.367563 -1.851222
-4.782407 3.062645 -1.808699
-4.989943 2.835448 -1.803206
-6.514827 2.981310 -1.821755
-6.921594 2.735609 -1.823529
-5.273930 2.551621 -1.797209
-5.596819 2.347856 -1.806807
-7.305507 2.364882 -1.805804
-7.688474 2.057650 -1.793843
-5.907817 2.038581 -1.803831
-6.185894 1.785051 -1.795882
-9.827576 5.971837 -1.935186
-10.549150 5.642848 -1.907531
-7.385513 4.696577 -1.895981
-7.810590 4.404550 -1.875491
-11.170792 5.131157 -1.876764
-12.023795 4.791557 -1.847140
-8.274206 4.012897 -1.858456
-8.791668 3.694928 -1.846032
-13.039329 7.954668 -2.005528
-14.129749 7.583771 -2.015576
-1.372143 0.462015 0.273862
-1.368834 0.429492 0.285007
-14.758533 6.834293 -1.925073
-15.618775 6.241668 -1.827392
-10.202380 4.975214 -1.879872
-10.802729 4.571643 -1.850440
-16.987900 5.649125 -1.798851
-18.162186 4.969134 -1.750015
-11.575913 4.094130 -1.825465
-12.307033 3.643619 -1.806369
-1.118160 0.653018 0.156616
-17.781458 9.535199 -0.420383
-19.126440 12.211798 -1.940674
-17.481647 9.848728 -1.482922
-20.449917 9.515109 -0.296990
-61.546429 24.530476 -0.667081
-18.303938 8.958802 -1.351842
-27.814672 11.747682 -1.816131
-68.613068 22.948660 -0.156563
-32.266026 8.834525 0.366397
-31.987804 11.404889 -1.757500
-33.202648 9.807398 -1.555759
-1.170221 0.688807 0.291486
-1.227357 0.688462 0.309900
-1.230941 0.757357 0.226642
-17.203272 9.713157 0.654955
-1.249236 0.554591 0.316699
-1.333035 0.559917 0.336462
-19.734407 9.689921 0.898386
-1.319011 0.586153 0.263205
-4.099464 2.512409 -1.803910
-4.269412 2.321644 -1.800025
-9.366870 3.278363 -1.830679
-9.924266 2.907489 -1.817579
-4.473242 2.044271 -1.777683
-4.694667 1.857245 -1.771994
-3.879966 1.878817 -1.790872
-4.046509 1.704349 -1.786474
-4.964690 1.585833 -1.782704
-5.179978 1.371537 -1.774429
-4.213180 1.440407 -1.768209
-4.418407 1.257483 -1.766036
-5.894416 3.590921 -1.863172
-6.250178 3.382828 -1.854491
-4.799775 3.084554 -1.817891
-4.990425 2.846073 -1.805152
-6.517131 2.994786 -1.823885
-6.917288 2.746479 -1.823529
-5.278427 2.564084 -1.800382
-5.607173 2.362494 -1.811744
-7.307305 2.378173 -1.807288
-7.679601 2.068229 -1.792417
-5.906408 2.048492 -1.804431
-6.166523 1.790033 -1.790650
-9.809794 5.982126 -1.933404
-10.538533 5.658485 -1.907192
-7.381403 4.710279 -1.896893
-7.820665 4.426374 -1.879902
-11.182410 5.157833 -1.880336
-12.034618 4.817749 -1.850183
-8.278419 4.031053 -1.861018
-8.791267 3.711004 -1.847262
-12.970475 7.968583 -1.998033
-14.126781 7.639398 -2.018888
-91.780983 33.047897 4.957581
-1.367478 0.433790 0.285007
-14.789055 6.905037 -1.932650
-15.667257 6.318073 -1.836320
-10.195515 5.011599 -1.881694
-10.781060 4.602482 -1.849048
-16.926760 5.687843 -1.793706
-18.171415 5.033037 -1.752713
-11.577846 4.135818 -1.828096
-12.301204 3.683954 -1.807305
-1.116103 0.656527 0.156616
-17.668695 9.546461 -0.417452
-19.103043 12.281534 -1.942376
-17.478373 9.919303 -1.485618
-20.396404 9.568242 -0.296407
-61.541431 24.752789 -0.668111
-18.302511 9.029531 -1.354138
-27.832726 11.858426 -1.820152
-68.601257 23.184620 -0.156885
-32.324860 8.959821 0.366827
-31.989372 11.518883 -1.759815
-33.104679 9.891697 -1.552193
-1.168052 0.692481 0.291486
-1.225188 0.692314 0.309900
-1.228555 0.761221 0.226642
-17.184845 9.774059 0.655273
-1.247488 0.558512 0.316699
-1.331270 0.564102 0.336462
-19.721775 9.760760 0.899017
-1.317163 0.590294 0.263205
-4.088413 2.523316 -1.802389
-4.263728 2.335927 -1.800777
-9.369455 3.312384 -1.833419
-9.926394 2.941974 -1.819820
-4.483643 2.066185 -1.785049
-4.695758 1.874717 -1.774865
-3.865894 1.886959 -1.786716
-4.034396 1.714238 -1.783208
-4.949006 1.597916 -1.778497
-5.182919 1.389717 -1.777153
-4.215550 1.456070 -1.771411
-4.421529 1.273357 -1.769148
-5.888002 3.612451 -1.864859
-6.232748 3.398787 -1.852312
-4.786898 3.097551 -1.816578
-4.983104 2.862672 -1.805801
-6.504198 3.013612 -1.822820
-6.912219 2.769622 -1.824557
-5.268645 2.579813 -1.799747
-5.587446 2.374941 -1.807424
-7.303474 2.402342 -1.808278
-7.686195 2.095880 -1.795745
-5.896348 2.065762 -1.803232
-6.160868 1.809396 -1.790650
-9.811047 6.025319 -1.937681
-10.520705 5.691566 -1.907192
-7.386190 4.746135 -1.902363
-7.803326 4.448999 -1.879020
-11.184028 5.201298 -1.883584
-12.019423 4.855534 -1.850183
-8.265714 4.057040 -1.861018
-8.786778 3.741652 -1.848901
-12.930247 7.999892 -1.995439
-14.189762 7.730983 -2.032687
-1.369213 0.470627 0.273862
-1.366109 0.438084 0.285007
-14.855129 6.992981 -1.945452
-15.656535 6.370988 -1.837527
-10.176200 5.041849 -1.880965
-10.770170 4.637877 -1.849744
-16.938904 5.751256 -1.797285
-18.157429 5.090630 -1.752921
-11.579630 4.177555 -1.830727
-12.295246 3.724285 -1.808241
-1.114035 0.660030 0.156616
-17.554283 9.556149 -0.414459
-18.484825 11.965369 -1.876764
-17.481754 9.993897 -1.488988
-20.254236 9.579136 -0.293631
-61.561592 24.985813 -0.669510
-18.213383 9.056717 -1.348933
-27.846687 11.967819 -1.823905
-68.586754 23.420063 -0.157196
-32.283066 9.057550 0.366760
-32.033695 11.648722 -1.764791
-33.037102 9.984691 -1.550256
-1.165871 0.696146 0.291486
-1.223007 0.696160 0.309900
-1.226158 0.765076 0.226642
-1.225956 0.730184 0.237483
-1.245727 0.562429 0.316699
-1.329491 0.568281 0.336462
-19.691011 9.822667 0.899017
-1.315302 0.594429 0.263205
-4.078900 2.535162 -1.801629
-4.259623 2.351084 -1.802281
-9.373767 3.347116 -1.836549
-9.917102 2.973143 -1.819820
-4.458627 2.071544 -1.776946
-4.681170 1.886016 -1.771276
-3.863202 1.900719 -1.788378
-4.034038 1.729031 -1.785658
-4.940407 1.612275 -1.777095
-5.160356 1.401152 -1.770342
-4.217863 1.471762 -1.774612
-4.412191 1.285724 -1.766814
-5.878254 3.631945 -1.865421
-6.230490 3.422952 -1.855036
-4.761362 3.102188 -1.810012
-4.972445 2.877372 -1.805152
