ply
format ascii 1.0
element vertex 1638
property float x
property float y
property float z
end_header
-9.579094 6.149187 -1.676147
-10.419967 5.950677 -1.674399
-29.773176 29.391428 -1.505658
-40.579491 35.757874 -1.478001
-13.815972 14.196247 -1.666881
-15.946974 14.674445 -1.618719
-41.952686 33.037434 -0.987887
-34.927757 24.432291 -0.355146
-18.327953 15.011683 -1.606137
-21.888018 15.980145 -1.608383
-30.213032 18.661352 0.028518
-1.235523 0.700361 0.213030
-27.224384 17.579248 -1.667453
-28.110020 16.026587 -1.440303
-0.981522 0.938344 0.291486
-1.037220 0.951083 0.309900
-1.024941 1.018970 0.226642
-75.951599 69.886566 2.555777
-1.089156 0.825772 0.316699
-1.169512 0.850136 0.336462
-80.485870 66.194870 3.493910
-1.149856 0.872466 0.263205
-3.396064 3.364300 -1.792504
-3.613655 3.227310 -1.794008
-7.856152 5.006855 -1.709363
-8.442638 4.789911 -1.696919
-3.867641 2.998851 -1.768107
-4.114254 2.861220 -1.757637
-3.345595 2.715769 -1.790040
-3.537196 2.576672 -1.779941
-4.413930 2.645976 -1.758165
-4.663724 2.486446 -1.747863
-3.782534 2.373291 -1.773812
-4.008507 2.232646 -1.763701
-4.707767 4.637709 -1.777146
-5.079298 4.519672 -1.767315
-3.885408 4.016604 -1.777186
-4.114807 3.828022 -1.762345
-5.408515 4.210466 -1.736033
-5.839718 4.072999 -1.737682
-4.431324 3.605355 -1.748337
-4.760355 3.469456 -1.748791
-6.307898 3.827655 -1.729111
-6.733430 3.627163 -1.717782
-5.115265 3.240003 -1.742645
-5.421106 3.057683 -1.730773
-7.432435 7.327394 -1.742697
-8.118758 7.176748 -1.713908
-5.729692 5.884124 -1.769717
-6.169108 5.702811 -1.747581
-8.827909 6.891972 -1.696836
-9.705101 6.810277 -1.679773
-6.679887 5.444491 -1.732064
-7.204763 5.258942 -1.716946
-9.344394 9.272820 -1.698220
-10.148693 9.026375 -1.673631
-1.227583 0.767642 0.273862
-1.231907 0.735239 0.285007
-11.175677 8.808465 -1.657015
-12.585662 8.878564 -1.655099
-8.042413 6.604790 -1.704944
-8.667816 6.380936 -1.679537
-14.173397 8.787128 -1.660839
-15.795243 8.653066 -1.664478
-9.563039 6.181398 -1.676805
-10.396078 5.980436 -1.673463
-29.697704 29.501724 -1.506641
-40.540276 35.950123 -1.481056
-13.783748 14.252477 -1.668583
-15.909577 14.732582 -1.619730
-1.023993 0.779234 0.179419
-35.235245 24.812244 -0.361349
-18.279167 15.067913 -1.605984
-21.842537 16.052364 -1.608785
-30.429255 18.927496 0.026890
-1.233317 0.704239 0.213030
-27.189104 17.677765 -1.668842
-28.234556 16.215139 -1.450595
-0.978569 0.941422 0.291486
-1.034227 0.954337 0.309900
-1.021735 1.022185 0.226642
-75.705284 70.100372 2.554957
-1.086557 0.829190 0.316699
-1.166836 0.853805 0.336462
-80.222115 66.401482 3.491639
-1.147110 0.876074 0.263205
-3.384176 3.373639 -1.791743
-3.596574 3.232490 -1.790249
-7.840385 5.031510 -1.709363
-8.451468 4.829993 -1.702149
-3.859662 3.012138 -1.768843
-4.106781 2.875193 -1.758355
-3.337048 2.726265 -1.790040
-3.532042 2.589913 -1.781575
-4.400801 2.656900 -1.756062
-4.659211 2.502848 -1.749225
-3.773516 2.384174 -1.773011
-3.990190 2.238980 -1.758254
-4.697247 4.656544 -1.778833
-5.056444 4.527936 -1.764046
-3.881891 4.038366 -1.781781
-4.105535 3.843502 -1.763642
-5.395262 4.227436 -1.736033
-5.831652 4.094638 -1.739224
-4.419977 3.619258 -1.748337
-4.763282 3.494460 -1.754346
-6.300793 3.850500 -1.730595
-6.727135 3.651060 -1.719208
-5.103457 3.255023 -1.742045
-5.414810 3.076575 -1.731935
-7.409380 7.350706 -1.742697
-8.097650 7.203525 -1.714247
-5.716578 5.907709 -1.771540
-6.156892 5.727459 -1.749345
-8.801567 6.916001 -1.695862
-9.675574 6.835045 -1.678252
-6.671793 5.472910 -1.734625
-7.197692 5.288476 -1.719405
-9.330589 9.317546 -1.701391
-10.132113 9.068760 -1.675839
-1.225165 0.771495 0.273862
-1.229591 0.739105 0.285007
-11.154153 8.848472 -1.658060
-12.564189 8.922647 -1.656065
-8.023135 6.631280 -1.705309
-8.642970 6.404629 -1.678493
-14.132245 8.823172 -1.659050
-15.766237 8.701687 -1.664271
-9.532016 6.203852 -1.674502
-10.382373 6.016029 -1.674399
-29.607695 29.597702 -1.506805
-39.873550 35.583763 -1.457924
-13.751303 14.308645 -1.670285
-15.873431 14.791988 -1.620910
-42.870827 34.199936 -1.020179
-35.506401 25.170107 -0.366999
-18.225605 15.120167 -1.605371
-21.775944 16.109056 -1.607445
-30.674585 19.214325 0.025081
-1.231099 0.708110 0.213030
-27.121742 17.755428 -1.668032
-28.425642 16.443598 -1.464862
-0.975607 0.944492 0.291486
-1.031224 0.957581 0.309900
-1.018519 1.025390 0.226642
-75.443695 70.299706 2.553682
-1.083946 0.832599 0.316699
-1.164148 0.857467 0.336462
-79.956284 66.605827 3.489304
-1.144351 0.879674 0.263205
-3.368365 3.378985 -1.788701
-3.597449 3.253658 -1.796265
-7.816317 5.050771 -1.707406
-8.426021 4.850667 -1.699908
-3.853092 3.026561 -1.770317
-4.097728 2.888081 -1.758355
-3.328466 2.736736 -1.790040
-3.520937 2.598845 -1.779941
-4.398814 2.674638 -1.758866
-4.621480 2.501508 -1.736964
-3.762926 2.394032 -1.771411
-3.989573 2.255095 -1.761367
-4.675828 4.664474 -1.776022
-5.052234 4.552779 -1.767860
-3.867885 4.049170 -1.781125
-4.086524 3.849926 -1.760399
-5.381954 4.244364 -1.736033
-5.818759 4.112938 -1.739224
-4.412959 3.636765 -1.750241
-4.744603 3.503791 -1.751260
-6.277137 3.863125 -1.727132
-6.724169 3.676807 -1.721585
-5.091605 3.270002 -1.741445
-5.400123 3.090740 -1.730191
-7.393197 7.380916 -1.744479
-8.072034 7.226305 -1.713570
-5.699336 5.927047 -1.771996
-6.138868 5.746775 -1.749345
-8.789066 6.950984 -1.697811
-9.650826 6.863125 -1.677643
-6.651560 5.491347 -1.733772
-7.179464 5.309902 -1.718995
-9.299879 9.345407 -1.701103
-10.115368 9.111130 -1.678047
-1.222735 0.775340 0.273862
-1.227263 0.742965 0.285007
-11.129394 8.885951 -1.658582
-12.519924 8.950555 -1.653651
-8.006789 6.660237 -1.706402
-8.635460 6.441141 -1.681277
-14.112862 8.872828 -1.660168
-15.735345 8.749248 -1.663855
-9.520715 6.239192 -1.676147
-10.358294 6.045640 -1.673463
-29.539909 29.716103 -1.508280
-39.639557 35.599396 -1.452812
-13.711778 14.357542 -1.671041
-15.845802 14.859484 -1.623100
-1.019077 0.785653 0.179419
-35.759369 25.518311 -0.372384
-18.182600 15.181190 -1.605831
-21.741243 16.189289 -1.608785
-30.881214 19.479374 0.023494
-1.228868 0.711975 0.213030
-27.062498 17.838350 -1.667800
-28.605206 16.667383 -1.478517
-0.972635 0.947552 0.291486
-1.028210 0.960816 0.309900
-1.015292 1.028585 0.226642
-75.193298 70.509033 2.552771
-1.081325 0.836000 0.316699
-1.161448 0.861120 0.336462
-79.705284 66.822014 3.487600
-1.141582 0.883264 0.263205
-3.366795 3.398799 -1.794024
-3.576192 3.255024 -1.790249
-7.808615 5.080674 -1.709363
-8.420954 4.883000 -1.702149
-3.843565 3.038651 -1.770317
-4.082521 2.896651 -1.755484
-3.317063 2.744843 -1.788378
-3.514226 2.610974 -1.780758
-4.379243 2.681540 -1.753958
-4.631806 2.525828 -1.744457
-3.761536 2.409832 -1.774612
-3.976043 2.264007 -1.758254
-4.663848 4.681871 -1.777146
-5.037906 4.568628 -1.767860
-3.840909 4.046163 -1.773903
-4.086820 3.874403 -1.766236
-5.368594 4.261252 -1.736033
-5.807387 4.132313 -1.739738
-4.410238 3.657915 -1.754049
-4.730509 3.516423 -1.750026
-6.271544 3.886933 -1.729111
-6.695537 3.688598 -1.716831
-5.086099 3.289110 -1.743245
-5.390387 3.107690 -1.730191
-7.368587 7.402708 -1.744122
-8.062502 7.263472 -1.716616
-5.664595 5.927977 -1.766526
-6.120784 5.766032 -1.749345
-8.771809 6.982259 -1.698785
-9.640486 6.901440 -1.679773
-6.632776 5.510963 -1.733345
-7.169042 5.337089 -1.720634
-9.289916 9.394317 -1.705139
-10.086695 9.142864 -1.678047
-1.220293 0.779178 0.273862
-1.224923 0.746817 0.285007
-11.098336 8.918382 -1.658060
-12.490129 8.988687 -1.653410
-7.984320 6.684092 -1.706038
-8.612026 6.465881 -1.680581
-14.066464 8.905400 -1.657708
-15.704306 8.796700 -1.663440
-9.497778 6.266891 -1.675489
-10.334135 6.075160 -1.672527
-0.927755 0.903319 0.156616
-39.147682 35.380806 -1.436851
-13.692607 14.428023 -1.674634
-15.801943 14.911924 -1.623437
-1.016603 0.788851 0.179419
-36.104744 25.935965 -0.379301
-18.122616 15.227962 -1.604606
-21.658319 16.233606 -1.606105
-31.118546 19.766312 0.021715
-1.226625 0.715832 0.213030
-26.502516 17.588337 -1.632730
-28.787088 16.894482 -1.492376
-0.969653 0.950603 0.291486
-1.025186 0.964042 0.309900
-1.012056 1.031769 0.226642
-74.940857 70.716103 2.551815
-1.078694 0.839393 0.316699
-1.158737 0.864765 0.336462
-79.464409 67.046295 3.486338
-1.138802 0.886847 0.263205
-3.357392 3.410686 -1.794785
-3.570068 3.269976 -1.792505
-7.800803 5.110577 -1.711319
-8.288323 4.841370 -1.676373
-3.832550 3.049546 -1.769580
-4.081025 2.914848 -1.759073
-3.308423 2.755250 -1.788378
-3.506006 2.622001 -1.780758
-4.377153 2.699250 -1.756763
-4.645331 2.552033 -1.753312
-3.753947 2.421638 -1.774612
-3.968911 2.276487 -1.758254
-4.654497 4.701978 -1.779395
-5.027807 4.588308 -1.769495
-3.833338 4.063730 -1.776529
-4.069129 3.882025 -1.763642
-5.356680 4.279306 -1.736565
-5.792801 4.149418 -1.739224
-4.390021 3.664421 -1.750241
-4.720967 3.532400 -1.750643
-6.251100 3.901458 -1.726637
-6.690723 3.713362 -1.718733
-5.078930 3.307169 -1.744444
-5.385572 3.127471 -1.731935
-7.346675 7.427224 -1.744479
-8.035252 7.284804 -1.715600
-5.655299 5.955658 -1.769717
-6.108318 5.790584 -1.751109
-8.749830 7.009783 -1.698785
-9.626788 6.937454 -1.681295
-6.619915 5.535548 -1.734625
-7.158518 5.364263 -1.722273
-9.265896 9.429111 -1.706292
-10.072583 9.187825 -1.680807
-1.217839 0.783007 0.273862
-1.222571 0.750661 0.285007
-11.073344 8.955701 -1.658582
-12.460222 9.026716 -1.653169
-7.966284 6.711683 -1.706767
-8.596394 6.496453 -1.681625
-14.050139 8.957042 -1.659274
-15.655787 8.834290 -1.660949
-9.468201 6.290124 -1.673515
-10.313300 6.106590 -1.672215
-29.352621 29.901115 -1.508280
-39.105888 35.566788 -1.439781
-13.651309 14.475316 -1.675201
-15.763700 14.969714 -1.624448
-1.014120 0.792040 0.179419
-36.477028 26.377110 -0.386693
-18.071646 15.282237 -1.604300
-21.596058 16.293163 -1.605166
-31.335852 20.043053 0.020047
-1.224370 0.719681 0.213030
-26.415607 17.650402 -1.630531
-28.959232 17.117802 -1.505725
-0.966662 0.953645 0.291486
-1.022153 0.967258 0.309900
-1.008810 1.034944 0.226642
-74.692245 70.926392 2.550995
-1.076052 0.842778 0.316699
-1.156015 0.868400 0.336462
-79.189415 67.241241 3.483688
-83.907707 63.394100 4.533739
-3.346661 3.421216 -1.794785
-3.563886 3.284921 -1.794761
-7.781442 5.132888 -1.710537
-8.356184 4.915977 -1.694678
-3.821506 3.060400 -1.768843
-4.074890 2.929817 -1.760509
-3.296977 2.763276 -1.786716
-3.499218 2.634092 -1.781575
-4.368653 2.712987 -1.756763
-4.637291 2.566613 -1.753312
-3.744790 2.432411 -1.773812
-3.966542 2.291682 -1.760589
-4.624956 4.701466 -1.773210
-5.010524 4.601487 -1.768405
-3.826981 4.082674 -1.779812
-4.067880 3.905220 -1.768831
-5.353696 4.304608 -1.740292
-5.787598 4.173218 -1.741794
-4.379935 3.679420 -1.750876
-4.717470 3.552902 -1.753729
-6.248635 3.927298 -1.729606
-6.684122 3.737189 -1.720159
-5.066925 3.322054 -1.743844
-5.379034 3.146293 -1.733098
-7.343947 7.471369 -1.749826
-8.021083 7.317960 -1.717632
-5.639226 5.976235 -1.770629
-6.091512 5.811085 -1.751550
-8.730833 7.039720 -1.699435
-9.595330 6.960718 -1.679469
-6.606967 5.560104 -1.735907
-7.133801 5.380853 -1.720224
-9.247269 9.469523 -1.708598
-10.052440 9.227445 -1.682463
-1.215374 0.786829 0.273862
-1.220206 0.754498 0.285007
-11.052833 8.996719 -1.659889
-12.428591 9.063483 -1.652686
-7.957134 6.746881 -1.709682
-8.579082 6.525805 -1.682322
-14.015245 8.996831 -1.658379
-15.660841 8.902061 -1.664894
-9.468040 6.333045 -1.677462
-10.300858 6.142993 -1.673463
-29.240410 29.974573 -1.507215
-38.967396 35.665184 -1.438659
-13.622081 14.535589 -1.677470
-15.729577 15.031539 -1.625964
-1.011627 0.795222 0.179419
-36.816154 26.798506 -0.393583
-18.020512 15.336349 -1.603993
-21.524088 16.345261 -1.603424
-31.543316 20.315939 0.018429
-1.222103 0.723524 0.213030
-26.300421 17.693134 -1.626365
-29.157717 17.358700 -1.520705
-0.963661 0.956677 0.291486
-1.019109 0.970464 0.309900
-1.005553 1.038108 0.226642
-74.438683 71.131691 2.550039
-1.073398 0.846154 0.316699
-1.153281 0.872028 0.336462
-78.939804 67.457214 3.482111
-83.679504 63.635620 4.532257
-3.325639 3.421045 -1.788701
-3.553549 3.296101 -1.794761
-7.760386 5.154040 -1.709363
-8.350858 4.948189 -1.696919
-3.817639 3.077089 -1.771790
-4.065666 2.942605 -1.760509
-3.295197 2.779526 -1.790872
-3.489463 2.643978 -1.780758
-4.363275 2.728700 -1.758165
-4.629205 2.581169 -1.753312
-3.741714 2.447200 -1.776213
-3.957725 2.303214 -1.759811
-4.634217 4.740773 -1.783331
-4.996043 4.617206 -1.768405
-3.819262 4.100230 -1.782438
-4.051491 3.914056 -1.766885
-5.337158 4.318969 -1.739228
-5.774459 4.191380 -1.741794
-4.368354 3.693162 -1.750876
-4.697158 3.560850 -1.750026
-6.246069 3.953162 -1.732574
-6.665565 3.754379 -1.718257
-5.061227 3.341130 -1.745644
-5.359206 3.157389 -1.729610
-7.319067 7.492993 -1.749469
-7.996599 7.341794 -1.717293
-5.623079 5.996772 -1.771540
-6.073226 5.830194 -1.751550
-8.716321 7.073349 -1.701059
-9.573416 6.990828 -1.679469
-6.593928 5.584635 -1.737188
-7.116862 5.403239 -1.720224
-9.214721 9.495682 -1.708022
-10.023401 9.258982 -1.682463
-1.212895 0.790644 0.273862
-1.217830 0.758328 0.285007
-11.030639 9.036435 -1.660934
-12.398451 9.101313 -1.652445
-7.929927 6.766726 -1.708224
-8.564807 6.557500 -1.683714
-13.985245 9.039738 -1.658155
-15.620702 8.944316 -1.663440
-9.448096 6.362759 -1.677462
-10.283204 6.176338 -1.673775
-29.084934 30.003122 -1.503609
-39.350903 36.243587 -1.459670
-13.592607 14.595817 -1.679739
-15.702409 15.100199 -1.628323
-1.009124 0.798397 0.179419
-37.132008 27.206938 -0.400130
-17.960136 15.382496 -1.602769
-21.463112 16.405540 -1.602620
-31.771177 20.604490 0.016681
-1.219824 0.727360 0.213030
-26.261227 17.786884 -1.627522
-29.349831 17.597939 -1.535378
-0.960651 0.959700 0.291486
-1.016055 0.973661 0.309900
-1.002287 1.041262 0.226642
-74.343147 71.488525 2.554092
-1.070735 0.849522 0.316699
-1.150536 0.875647 0.336462
-78.604736 67.599274 3.476999
-83.423615 63.855705 4.529377
-3.326376 3.443513 -1.795545
-3.540453 3.304734 -1.793257
-7.747410 5.180585 -1.710146
-8.338651 4.976404 -1.697666
-3.809391 3.090246 -1.772526
-4.053372 2.953180 -1.759073
-3.283689 2.787494 -1.789209
-3.491348 2.662617 -1.786474
-4.356260 2.743401 -1.758866
-4.602989 2.585658 -1.745820
-3.734007 2.458943 -1.776213
-3.958444 2.320250 -1.763701
-4.611309 4.747017 -1.779958
-4.994241 4.644625 -1.773308
-3.803807 4.109424 -1.781125
-4.041899 3.929390 -1.768182
-5.320583 4.333269 -1.738163
-5.765956 4.212904 -1.743336
-4.355290 3.705632 -1.750241
-4.702640 3.588210 -1.756815
-6.227097 3.968576 -1.730595
-6.657123 3.777207 -1.719208
-5.045951 3.353825 -1.743844
-5.355859 3.178089 -1.731935
-7.302327 7.523028 -1.751252
-7.983651 7.376220 -1.719663
-5.600242 6.010121 -1.770173
-6.067544 5.861404 -1.755520
-8.692531 7.099445 -1.700734
-9.559382 7.026706 -1.680990
-6.577834 5.606595 -1.737615
-7.093616 5.420834 -1.718585
-9.205411 9.545993 -1.712346
-10.008800 9.303883 -1.685222
-1.210406 0.794450 0.273862
-1.215442 0.762150 0.285007
-11.008307 9.076098 -1.661979
-12.380991 9.148457 -1.654134
-7.916075 6.798028 -1.710046
-8.545727 6.585571 -1.684062
-13.948460 9.078194 -1.657037
-15.590804 8.992352 -1.663233
-9.426433 6.391298 -1.677133
-10.258674 6.205555 -1.672839
-29.036263 30.141863 -1.506313
-38.673603 35.845482 -1.435728
-13.554791 14.647223 -1.680873
-15.669233 15.163293 -1.630008
-1.006611 0.801563 0.179419
-37.427948 27.604565 -0.406387
-17.904181 15.432324 -1.602003
-21.405138 16.468021 -1.602084
-31.987492 20.888094 0.014993
-1.217533 0.731189 0.213030
-26.215115 17.876051 -1.628217
-29.496256 17.811735 -1.547403
-0.957631 0.962713 0.291486
-1.012992 0.976848 0.309900
-0.999011 1.044405 0.226642
-1.007440 1.010545 0.237483
-1.068061 0.852882 0.316699
-1.147779 0.879257 0.336462
-78.437340 67.885132 3.478893
-83.148193 64.060158 4.525510
-3.321911 3.460652 -1.799348
-3.531412 3.317101 -1.794008
-7.747337 5.215896 -1.714059
-8.360085 5.024744 -1.705885
-3.798230 3.101015 -1.771790
-4.048608 2.969188 -1.761227
-3.276292 2.798985 -1.790040
-3.475692 2.668056 -1.782391
-4.349197 2.758084 -1.759567
-4.624384 2.616629 -1.758081
-3.721699 2.467596 -1.773812
-3.935217 2.323397 -1.755920
-4.601683 4.767024 -1.782206
-4.959885 4.641958 -1.765681
-3.788334 4.118560 -1.779812
-4.026819 3.939435 -1.766885
-5.315862 4.357328 -1.741357
-5.743326 4.224160 -1.740252
-4.346498 3.721776 -1.751511
-4.683776 3.597205 -1.753729
-6.217854 3.990223 -1.731585
-6.646914 3.799060 -1.719684
-5.033810 3.368593 -1.743245
-5.342556 3.192949 -1.730773
-7.278658 7.545930 -1.751252
-7.963333 7.403940 -1.720340
-5.593201 6.040582 -1.774275
-6.047699 5.879082 -1.755079
-8.673230 7.129231 -1.701383
-9.537262 7.056702 -1.680990
-6.566106 5.632338 -1.739323
-7.093659 5.456169 -1.723093
-9.165807 9.564847 -1.710328
-9.978068 9.333931 -1.684946
-1.207904 0.798249 0.273862
-1.213041 0.765965 0.285007
-10.979737 9.110641 -1.661979
-12.341021 9.179036 -1.652445
-7.903585 6.830603 -1.712233
-8.523435 6.611185 -1.683714
-13.923187 9.124155 -1.657484
-15.557309 9.038301 -1.662610
-9.407932 6.421999 -1.677462
-10.234057 6.234683 -1.671903
-28.919323 30.209831 -1.505002
-38.793335 36.183495 -1.445642
-13.515434 14.697076 -1.681819
-15.625803 15.216615 -1.630513
-1.004087 0.804721 0.179419
-37.763508 28.035301 -0.413330
-17.860121 15.492425 -1.602462
-21.329607 16.516888 -1.600073
-1.075009 0.676736 0.200556
-1.215230 0.735010 0.213030
-26.086433 17.908545 -1.623124
-29.708206 18.067066 -1.563402
-0.954602 0.965717 0.291486
-1.009917 0.980026 0.309900
-0.995725 1.047539 0.226642
-1.004260 1.013706 0.237483
-1.065376 0.856233 0.316699
-1.145011 0.882859 0.336462
-78.175438 68.089211 3.476873
-82.886490 64.274567 4.522384
-3.304674 3.464346 -1.795545
-3.522326 3.329446 -1.794761
-7.727670 5.238001 -1.713276
-8.327420 5.040855 -1.702149
-3.788468 3.112933 -1.771790
-4.043782 2.985196 -1.763380
-3.270226 2.811654 -1.791703
-3.468744 2.680071 -1.783208
-4.337363 2.769702 -1.758165
-4.601395 2.622837 -1.751950
-3.721520 2.484409 -1.777813
-3.927898 2.335749 -1.755920
-4.593299 4.788410 -1.785018
-4.967770 4.678542 -1.774398
-3.770303 4.124841 -1.777186
-4.004941 3.942820 -1.762345
-5.297698 4.370312 -1.739760
-5.739371 4.249050 -1.743336
-4.344801 3.744126 -1.755953
-4.683023 3.620001 -1.758049
-6.193919 4.002337 -1.728121
-6.645067 3.825706 -1.722536
-5.032668 3.390829 -1.746844
-5.344002 3.216578 -1.734842
-7.268496 7.583002 -1.754816
-7.940031 7.428924 -1.720340
-5.558425 6.040878 -1.768805
-6.030597 5.899413 -1.755520
-8.646235 7.152662 -1.700409
-9.502339 7.077213 -1.678556
-6.543952 5.649096 -1.738042
-7.073378 5.476041 -1.722273
-9.156145 9.615131 -1.714652
-9.966037 9.381491 -1.688258
-1.205390 0.802040 0.273862
-1.210629 0.769772 0.285007
-10.951063 9.145087 -1.661979
-12.308942 9.215384 -1.651962
-7.877647 6.851514 -1.711140
-8.510401 6.643969 -1.685454
-13.884514 9.161267 -1.656142
-15.521965 9.083118 -1.661779
-9.376348 6.443674 -1.675160
-10.205992 6.261655 -1.670343
-28.847675 30.325159 -1.506395
-38.654682 36.281937 -1.444582
-13.493338 14.765946 -1.685222
-15.596451 15.283738 -1.632704
-1.001554 0.807872 0.179419
-38.178471 28.529402 -0.421619
-17.787352 15.527444 -1.600013
-21.260290 16.570335 -1.598599
-32.489037 21.508617 0.011174
-1.212915 0.738824 0.213030
-26.057955 18.009726 -1.625092
-29.917139 18.322845 -1.579299
-0.951563 0.968711 0.291486
-1.006834 0.983194 0.309900
-0.992429 1.050662 0.226642
-1.001071 1.016856 0.237483
-1.062681 0.859576 0.316699
-1.142232 0.886451 0.336462
-77.926582 68.304138 3.475422
-82.638481 64.498985 4.519998
-3.289979 3.470662 -1.793264
-3.514549 3.343035 -1.796265
-7.712794 5.263361 -1.713668
-8.319946 5.072082 -1.704017
-3.778670 3.124819 -1.771790
-4.016335 2.984617 -1.754766
-3.258641 2.819516 -1.790040
-3.455963 2.687618 -1.780758
-4.336493 2.788419 -1.761670
-4.586592 2.633566 -1.749225
-3.707636 2.491963 -1.774612
-3.922126 2.349015 -1.756698
-4.576915 4.801422 -1.784456
-4.947442 4.688851 -1.772219
-3.757327 4.136665 -1.777186
-3.996586 3.959357 -1.764291
-5.279507 4.383221 -1.738163
-5.716671 4.260163 -1.740252
-4.318747 3.745265 -1.749606
-4.656562 3.623078 -1.751877
-6.192659 4.029212 -1.731585
-6.619545 3.838811 -1.718733
-5.017268 3.403388 -1.745044
-5.328950 3.230395 -1.733098
-7.236516 7.597228 -1.752677
-7.923847 7.460569 -1.722032
-5.543351 6.062635 -1.770173
-6.014822 5.921057 -1.756402
-8.628263 7.183586 -1.701383
-9.476892 7.104665 -1.677947
-6.526173 5.669626 -1.738042
-7.062331 5.503030 -1.723913
-9.124536 9.642410 -1.714364
-9.936514 9.412754 -1.688258
-1.202865 0.805823 0.273862
-1.208205 0.773571 0.285007
-10.931373 9.187118 -1.663547
-12.281517 9.255201 -1.652204
-7.859036 6.878828 -1.711869
-8.491037 6.671886 -1.685802
-13.860624 9.208148 -1.656813
-15.493354 9.131840 -1.661779
-9.359298 6.475352 -1.675818
-10.191318 6.296793 -1.671279
-0.907668 0.923501 0.156616
-38.469269 36.335976 -1.441527
-13.452230 14.814170 -1.685979
-15.563984 15.348035 -1.634557
-0.999011 0.811014 0.179419
-38.577904 29.016785 -0.429697
-17.739977 15.584567 -1.600166
-21.197130 16.628435 -1.597661
-1.070736 0.683477 0.200556
-1.210588 0.742631 0.213030
-25.950466 18.056110 -1.621504
-30.133266 18.585361 -1.595705
-0.948516 0.971696 0.291486
-1.003740 0.986352 0.309900
-0.989123 1.053774 0.226642
-0.997871 1.019996 0.237483
-1.059975 0.862910 0.316699
-1.139442 0.890035 0.336462
-77.671150 68.512909 3.473718
-82.372566 64.708916 4.516707
-3.279059 3.480981 -1.793264
-3.501338 3.351512 -1.794761
-7.691380 5.284221 -1.712494
-8.309003 5.101266 -1.705138
-3.768835 3.136675 -1.771790
-4.014442 3.002771 -1.758355
-3.244308 2.824928 -1.786716
-3.453281 2.702929 -1.784025
-4.329278 2.803055 -1.762372
-4.592988 2.656363 -1.755356
-3.702813 2.505671 -1.776213
-3.916311 2.362268 -1.757476
-4.564438 4.818574 -1.785580
-4.928493 4.700402 -1.770584
-3.743053 4.147040 -1.776529
-3.989511 3.977212 -1.766885
-5.276034 4.408478 -1.741890
-5.712561 4.285027 -1.743336
-4.319768 3.770097 -1.755319
-4.658683 3.648186 -1.757432
-6.171885 4.043310 -1.729111
-6.610814 3.861537 -1.719684
-5.011264 3.422382 -1.746844
-5.320413 3.248111 -1.733679
-7.230154 7.638548 -1.757311
-7.904671 7.489483 -1.723047
-5.532106 6.088692 -1.772908
-5.997581 5.941292 -1.756843
-8.610182 7.214471 -1.702358
-9.459267 7.137965 -1.678860
-6.511264 5.692682 -1.738896
-7.041920 5.522784 -1.723093
-9.111787 9.689807 -1.718112
-9.916948 9.453473 -1.690190
-1.200327 0.809598 0.273862
-1.205769 0.777363 0.285007
-10.903967 9.222697 -1.663808
-12.239710 9.284163 -1.650273
-7.838859 6.904788 -1.712233
-8.471582 6.699747 -1.686150
-13.816774 9.241679 -1.654800
-15.457741 9.176416 -1.660949
-9.338908 6.504723 -1.675818
-10.178204 6.332939 -1.672527
-0.904762 0.926348 0.156616
-0.987049 0.973130 0.165694
-13.428266 14.881517 -1.689193
-15.524186 15.405269 -1.635568
-0.996458 0.814149 0.179419
-1.091802 0.858267 0.189211
-17.674513 15.625677 -1.598482
-21.130678 16.683830 -1.596454
-1.068584 0.686837 0.200556
-1.208249 0.746431 0.213030
-25.847849 18.105434 -1.618263
-30.269941 18.800989 -1.607424
-0.945458 0.974671 0.291486
-1.000636 0.989501 0.309900
-0.985808 1.056877 0.226642
-0.994662 1.023126 0.237483
-1.057259 0.866236 0.316699
-1.136640 0.893611 0.336462
-77.413666 68.719414 3.471951
-82.112434 64.922783 4.513745
-3.266851 3.489908 -1.792504
-3.493474 3.365052 -1.796265
-7.676352 5.309479 -1.712885
-8.286239 5.123229 -1.703643
-3.763219 3.152103 -1.774000
-4.009480 3.018714 -1.760509
-3.242222 2.841142 -1.790872
-3.446213 2.714886 -1.784841
-4.315759 2.813550 -1.760268
-4.581361 2.668903 -1.753994
-3.696432 2.518332 -1.777013
-3.926250 2.384983 -1.766036
-4.537486 4.820266 -1.780520
-4.929031 4.730462 -1.776578
-3.745064 4.175725 -1.784407
-3.976997 3.989725 -1.766885
-5.253334 4.417554 -1.738695
-5.697525 4.301794 -1.742822
-4.310741 3.786165 -1.756588
-4.645699 3.661633 -1.756815
-6.180132 4.076625 -1.735543
-6.610394 3.889143 -1.723011
-4.998919 3.437021 -1.746244
-5.310182 3.264810 -1.733679
-7.204776 7.659789 -1.756955
-7.889684 7.522420 -1.725079
-5.510350 6.103143 -1.771996
-5.984430 5.965598 -1.758608
-8.588979 7.242761 -1.702682
-9.439949 7.170032 -1.679469
-6.487494 5.707929 -1.737188
-7.029155 5.548505 -1.724322
-9.100605 9.708448 -1.718976
-9.909257 9.475873 -1.691570
-1.199054 0.811482 0.273862
-1.204546 0.779256 0.285007
-10.898524 9.247530 -1.665375
-12.199799 9.284184 -1.646412
-7.841236 6.928845 -1.715513
-8.467229 6.717928 -1.687542
-13.807186 9.266706 -1.655471
-15.445014 9.201704 -1.661156
-9.339978 6.527322 -1.678120
-10.153140 6.339536 -1.669719
-0.903306 0.927768 0.156616
-38.343918 36.560978 -1.443522
-13.431463 14.932235 -1.692975
-15.512692 15.442273 -1.637084
-0.995178 0.815713 0.179419
-39.316975 29.863085 -0.444217
-17.649942 15.653421 -1.598482
-21.093483 16.708342 -1.595516
-1.067503 0.688515 0.200556
-1.207075 0.748328 0.213030
-25.776926 18.116135 -1.615254
-30.394690 18.944548 -1.616697
-0.943926 0.976155 0.291486
-0.999081 0.991071 0.309900
-0.984146 1.058424 0.226642
-0.993053 1.024687 0.237483
-1.055897 0.867896 0.316699
-1.135234 0.895395 0.336462
-77.274277 68.813019 3.470626
-81.964935 65.015694 4.511359
-3.265128 3.499113 -1.794785
-3.489523 3.371816 -1.797017
-7.663176 5.318163 -1.711711
-8.283196 5.139334 -1.704764
-3.754011 3.154400 -1.771790
-4.004733 3.025009 -1.760509
-3.233677 2.842604 -1.788378
-3.447700 2.724791 -1.788107
-4.309772 2.819293 -1.759567
-4.552742 2.661979 -1.743776
-3.687949 2.521006 -1.774612
-3.890927 2.372146 -1.750473
-4.535140 4.833007 -1.782769
-4.917419 4.734211 -1.774943
-3.732236 4.174533 -1.781125
-3.977423 4.002647 -1.770128
-5.252262 4.430794 -1.740825
-5.689215 4.309577 -1.742308
-4.306206 3.794193 -1.757223
-4.635449 3.665406 -1.754963
-6.175332 4.087404 -1.736038
-6.590866 3.891666 -1.719208
-4.996645 3.447050 -1.747444
-5.305047 3.273148 -1.733679
-7.208844 7.688365 -1.761233
-7.886422 7.542960 -1.727110
-5.508544 6.120502 -1.774731
-5.976434 5.976367 -1.759049
-8.576086 7.254966 -1.702358
-9.428673 7.184852 -1.679469
-6.488747 5.727195 -1.740177
-7.021967 5.560751 -1.724732
-9.091600 9.760201 -1.723589
-9.886591 9.513808 -1.692950
-1.196499 0.815245 0.273862
-1.202092 0.783036 0.285007
-10.881465 9.292045 -1.667465
-12.180040 9.329690 -1.647860
-7.826761 6.959995 -1.717335
-8.438375 6.738369 -1.685802
-13.768137 9.303340 -1.654129
-15.410913 9.247114 -1.660534
-9.327483 6.562325 -1.679765
-10.144897 6.378735 -1.671903
-0.900387 0.930601 0.156616
-38.198578 36.652206 -1.442213
-13.399063 14.990703 -1.695055
-15.475385 15.502201 -1.638432
-0.992611 0.818835 0.179419
-1.087745 0.863402 0.189211
-17.587305 15.696825 -1.597104
-21.023718 16.760857 -1.594042
-33.546177 22.744169 0.003306
-1.204718 0.752116 0.213030
-25.431557 17.992666 -1.594767
-30.357033 19.053726 -1.618022
-0.940855 0.979115 0.291486
-0.995962 0.994205 0.309900
-0.980817 1.061510 0.226642
-0.989829 1.027801 0.237483
-1.053165 0.871209 0.316699
-1.132416 0.898957 0.336462
-77.014557 69.016724 3.468796
-81.708733 65.231735 4.508644
-3.250369 3.505263 -1.792504
-3.477578 3.381477 -1.796265
-7.660875 5.352360 -1.715233
-8.272018 5.168440 -1.705885
-3.745497 3.167386 -1.772526
-4.002669 3.043185 -1.764098
-3.232862 2.860030 -1.793365
-3.434817 2.732224 -1.785658
-4.299335 2.831779 -1.758866
-4.562233 2.686677 -1.751269
-3.681515 2.533627 -1.775412
-3.922846 2.408233 -1.769926
-4.519936 4.847230 -1.782769
-4.908071 4.754970 -1.777122
-3.712864 4.179146 -1.777842
-3.964829 4.015122 -1.770128
-5.247107 4.454792 -1.744020
-5.678731 4.329760 -1.743336
-4.287198 3.801378 -1.754049
-4.626899 3.682307 -1.756198
-6.165679 4.108944 -1.737028
-6.575262 3.910377 -1.718257
-4.982668 3.460539 -1.746244
-5.294739 3.289797 -1.733679
-7.187332 7.713859 -1.761945
-7.871229 7.575879 -1.729141
-5.484115 6.131953 -1.772908
-5.963149 6.000629 -1.760813
-8.559254 7.287003 -1.703657
-9.407627 7.215636 -1.679773
-6.470724 5.747550 -1.740177
-7.009068 5.586429 -1.725962
-9.052843 9.779984 -1.721859
-9.863781 9.551698 -1.694330
-1.193931 0.819000 0.273862
-1.199626 0.786809 0.285007
-10.847714 9.322298 -1.666682
-12.166414 9.380006 -1.650273
-7.801933 6.981920 -1.716606
-8.417164 6.764845 -1.685802
-13.750331 9.354391 -1.655694
-15.386895 9.298562 -1.661156
-9.303606 6.589308 -1.679107
-10.113109 6.403203 -1.669719
-0.897459 0.933425 0.156616
-38.053024 36.742882 -1.440903
-13.362464 15.044647 -1.696567
-15.437848 15.562047 -1.639780
-0.990033 0.821950 0.179419
-1.085027 0.866815 0.189211
-17.517155 15.733322 -1.594961
-20.966282 16.823078 -1.593640
-33.819633 23.085321 0.001206
-1.202349 0.755897 0.213030
-25.267630 17.995934 -1.587128
-30.302090 19.152199 -1.618327
-0.937774 0.982066 0.291486
-0.992834 0.997329 0.309900
-0.977477 1.064586 0.226642
-0.986596 1.030906 0.237483
-1.050423 0.874513 0.316699
-1.129586 0.902510 0.336462
-76.763214 69.227531 3.467345
-81.448868 65.444305 4.505764
-3.244325 3.520926 -1.795545
-3.462943 3.388518 -1.794008
-7.642419 5.375267 -1.714841
-8.257405 5.195443 -1.706258
-3.739756 3.182775 -1.774736
-4.000531 3.061379 -1.767687
-3.219807 2.866518 -1.790872
-3.426216 2.743001 -1.785658
-4.291973 2.846315 -1.759567
-4.563502 2.706704 -1.755356
-3.667536 2.540970 -1.772211
-3.891672 2.406146 -1.758254
-4.504684 4.861406 -1.782769
-4.888959 4.766351 -1.775488
-3.699716 4.190790 -1.777842
-3.949533 4.024870 -1.768831
-5.234546 4.472512 -1.744552
-5.669713 4.351093 -1.744878
-4.285100 3.823712 -1.758492
-4.612328 3.694459 -1.754963
-6.154345 4.129378 -1.737522
-6.574634 3.937962 -1.721585
-4.973330 3.477276 -1.746844
-5.294136 3.312464 -1.737167
-7.145727 7.717585 -1.757311
-7.847389 7.600569 -1.729141
-5.469980 6.154991 -1.774731
-5.947016 6.022101 -1.761695
-8.537813 7.315145 -1.703981
-9.377075 7.239132 -1.678252
-6.452635 5.767850 -1.740177
-6.985361 5.603540 -1.724322
-9.036779 9.824429 -1.725030
-9.839409 9.588158 -1.695434
-1.191353 0.822747 0.273862
-1.197148 0.790574 0.285007
-10.830351 9.366731 -1.668772
-12.119611 9.404822 -1.647619
-7.784334 7.010355 -1.717700
-8.408144 6.801135 -1.688587
-13.714324 9.393042 -1.654800
-15.350805 9.342731 -1.660326
-9.284463 6.619653 -1.679436
-10.102951 6.441293 -1.671591
-28.639639 31.167992 -1.525813
-37.878593 36.805168 -1.438347
-13.344076 15.119430 -1.700727
-15.398686 15.620395 -1.640959
-0.987446 0.825056 0.179419
-40.522167 31.383827 -0.469059
-17.376011 15.705273 -1.585469
-20.917990 16.892620 -1.594042
-1.060967 0.698545 0.200556
-1.199968 0.759671 0.213030
-25.201241 18.068237 -1.586434
-30.300779 19.284798 -1.621894
-0.934684 0.985007 0.291486
-0.989696 1.000443 0.309900
-0.974128 1.067652 0.226642
-0.983352 1.034000 0.237483
-1.047671 0.877809 0.316699
-1.126745 0.906054 0.336462
-76.515755 69.441475 3.466083
-81.185379 65.653397 4.502720
-3.233247 3.531101 -1.795545
-3.457590 3.404553 -1.797017
-7.623898 5.398113 -1.714450
-8.237719 5.219265 -1.705511
-3.728333 3.193291 -1.774000
-3.979015 3.064880 -1.761944
-3.210786 2.876620 -1.790872
-3.416153 2.752614 -1.784841
-4.287667 2.862929 -1.761670
-4.530691 2.706681 -1.745138
-3.659535 2.552480 -1.772211
-3.896650 2.426080 -1.764479
-4.485506 4.871283 -1.781082
-4.872583 4.780345 -1.774943
-3.695207 4.212374 -1.782438
-3.936869 4.037258 -1.768831
-5.217556 4.486411 -1.743487
-5.652948 4.366533 -1.743850
-4.259012 3.824420 -1.752145
-4.621507 3.725555 -1.763604
-6.138138 4.146512 -1.736533
-6.557230 3.955604 -1.720159
-4.963937 3.493988 -1.747444
-5.285326 3.330093 -1.737749
-7.136065 7.755964 -1.761233
-7.827717 7.629303 -1.730156
-5.453185 6.175073 -1.775643
-5.932180 6.044919 -1.763018
-8.531199 7.356145 -1.707554
-9.358977 7.272184 -1.679165
-6.444623 5.797271 -1.743165
-6.969248 5.626682 -1.724732
-9.007202 9.854234 -1.725319
-9.819157 9.628712 -1.697366
-1.188762 0.826485 0.273862
-1.194659 0.794331 0.285007
-10.803858 9.403317 -1.669294
-12.058669 9.418462 -1.642793
-7.765179 7.037426 -1.718428
-8.385205 6.826276 -1.688239
-13.689651 9.439474 -1.655471
-15.316285 9.387800 -1.659703
-9.257218 6.644172 -1.678120
-10.074341 6.467683 -1.670031
-28.552355 31.269627 -1.526469
-37.688416 36.851349 -1.435105
-13.308309 15.174767 -1.702429
-15.357912 15.677225 -1.641970
-51.588177 45.156216 -1.327469
-1.079559 0.873615 0.189211
-17.445951 15.868601 -1.597870
-20.857065 16.951971 -1.593372
-1.058767 0.701875 0.200556
-1.197576 0.763437 0.213030
-25.071541 18.094681 -1.581226
-30.344355 19.446640 -1.628212
-0.931585 0.987939 0.291486
-0.986548 1.003547 0.309900
-0.970769 1.070707 0.226642
-0.980098 1.037085 0.237483
-1.044908 0.881096 0.316699
-1.123893 0.909590 0.336462
-76.254417 69.642418 3.464253
-80.921341 65.861465 4.499675
-3.234512 3.554991 -1.803150
-3.448201 3.416696 -1.797769
-7.613277 5.426610 -1.716016
-8.216303 5.241962 -1.704390
-3.721086 3.207431 -1.775473
-3.972329 3.079638 -1.763380
-3.212482 2.896503 -1.797521
-3.394665 2.753059 -1.777492
-4.275554 2.874279 -1.760268
-4.523781 2.721864 -1.745820
-3.651498 2.563964 -1.772211
-3.887443 2.437340 -1.763701
-4.485661 4.902403 -1.787829
-4.869911 4.807750 -1.779847
-3.681954 4.223962 -1.782438
-3.918875 4.044196 -1.766236
-5.212153 4.510382 -1.746682
-5.645323 4.388993 -1.745906
-4.253983 3.844172 -1.755319
-4.590506 3.724558 -1.755580
-6.126679 4.166871 -1.737028
-6.551424 3.980197 -1.722060
-4.956040 3.511785 -1.748644
-5.273218 3.345663 -1.737167
-7.128879 7.797268 -1.765867
-7.809351 7.659364 -1.731510
-5.424799 6.181900 -1.772452
-5.906329 6.056564 -1.760813
-8.506557 7.381613 -1.707229
-9.334524 7.300336 -1.678860
-6.424934 5.816174 -1.742739
-6.956106 5.652241 -1.725962
-8.989481 9.897157 -1.728201
-9.798749 9.669230 -1.699298
-1.186160 0.830216 0.273862
-1.192157 0.798080 0.285007
-10.780222 9.442447 -1.670339
-12.039962 9.464868 -1.644482
-7.750281 7.068427 -1.720250
-8.368298 6.856317 -1.689283
-13.653407 9.477888 -1.654576
-15.286719 9.435867 -1.659703
-9.236302 6.673221 -1.678120
-10.053974 6.499299 -1.670031
-28.526443 31.439123 -1.530893
-37.589573 36.986374 -1.435853
-13.277553 15.236033 -1.704887
-15.309984 15.726819 -1.642139
-51.227089 45.125004 -1.320930
-41.358295 32.448311 -0.486403
-17.359282 15.889627 -1.594042
-20.800617 17.014881 -1.593104
-1.056557 0.705197 0.200556
-1.195172 0.767195 0.213030
-24.930624 18.112253 -1.575207
-30.356993 19.589464 -1.632696
-0.928477 0.990861 0.291486
-0.983391 1.006642 0.309900
-0.967400 1.073751 0.226642
-0.976836 1.040158 0.237483
-1.042135 0.884374 0.316699
-1.121030 0.913116 0.336462
-76.002907 69.851845 3.462865
-80.672302 66.081161 4.497454
-3.213463 3.554104 -1.797066
-3.434812 3.424909 -1.796265
-7.591421 5.447055 -1.714841
-8.199795 5.267747 -1.704390
-3.709594 3.217879 -1.774736
-3.959680 3.089820 -1.761944
-3.196668 2.900428 -1.793365
-3.391685 2.768294 -1.780758
-4.260320 2.883466 -1.757464
-4.549080 2.756359 -1.760124
-3.640445 2.573289 -1.770610
-3.879767 2.449540 -1.763701
-4.462524 4.907920 -1.784456
-4.860265 4.828429 -1.782026
-3.669897 4.236941 -1.783094
-3.910106 4.060557 -1.768182
-5.196510 4.525462 -1.746149
-5.633034 4.407891 -1.746421
-4.243284 3.858799 -1.755953
-4.598008 3.754519 -1.763604
-6.119939 4.190498 -1.739007
-6.537229 3.999750 -1.721585
-4.948080 3.529566 -1.749843
-5.254598 3.357094 -1.734261
-7.093792 7.807946 -1.763015
-7.790877 7.689384 -1.732864
-5.402802 6.195967 -1.771540
-5.891359 6.079278 -1.762136
-8.480359 7.405696 -1.706580
-9.319324 7.335720 -1.680382
-6.412394 5.841609 -1.744447
-6.938316 5.674064 -1.725962
-8.954372 9.920935 -1.727337
-9.776772 9.708326 -1.700953
-1.183546 0.833938 0.273862
-1.189644 0.801822 0.285007
-10.754959 9.480210 -1.671123
-12.031994 9.519855 -1.647860
-7.716473 7.082075 -1.717335
-8.354329 6.888821 -1.691023
-13.618682 9.517314 -1.653905
-15.248544 9.478608 -1.658665
-9.213698 6.701041 -1.677791
-10.038479 6.534076 -1.670967
-28.459625 31.564226 -1.532860
-37.443348 37.074764 -1.434544
-13.253045 15.304793 -1.708290
-15.272985 15.787717 -1.643655
-51.378227 45.545799 -1.329708
-1.074049 0.880381 0.189211
-17.344440 15.976549 -1.597716
-20.751684 17.083946 -1.593506
-1.054337 0.708513 0.200556
-1.192756 0.770946 0.213030
-24.833332 18.160988 -1.572313
-30.266813 19.666264 -1.630963
-0.925359 0.993773 0.291486
-0.980223 1.009726 0.309900
-0.964022 1.076785 0.226642
-0.973563 1.043222 0.237483
-1.039351 0.887644 0.316699
-1.118156 0.916633 0.336462
-75.764000 70.072632 3.462044
-80.411858 66.291084 4.494657
-3.201053 3.562799 -1.796306
-3.430612 3.442211 -1.800025
-7.577444 5.473184 -1.715624
-8.184857 5.294546 -1.704764
-3.700861 3.230748 -1.775473
-3.952902 3.104535 -1.763380
-3.183532 2.906752 -1.790872
-3.399982 2.792741 -1.790557
-4.263580 2.905337 -1.763073
-4.511420 2.753147 -1.747863
-3.627881 2.581499 -1.768209
-3.873613 2.462697 -1.764479
-4.444521 4.919057 -1.783331
-4.835510 4.834187 -1.778212
-3.661470 4.254200 -1.785720
-3.899959 4.075543 -1.769479
-5.177932 4.537937 -1.744552
-5.616113 4.423186 -1.745392
-4.233926 3.874684 -1.757223
-4.574389 3.759334 -1.758666
-6.101969 4.206388 -1.737522
-6.529603 4.023309 -1.723011
-4.941602 3.548452 -1.751643
-5.247252 3.375643 -1.735423
-7.081064 7.843370 -1.766223
-7.769485 7.716594 -1.733541
-5.389664 6.220289 -1.773819
-5.873588 6.099158 -1.762577
-8.464448 7.438834 -1.708204
-9.293129 7.362514 -1.679773
-6.404064 5.870999 -1.747436
-6.928030 5.702032 -1.728011
-8.948214 9.977058 -1.732814
-9.750437 9.743185 -1.701782
-1.180920 0.837652 0.273862
-1.187119 0.805555 0.285007
-10.736972 9.524500 -1.673213
-12.009804 9.563779 -1.649067
-7.707158 7.118322 -1.720615
-8.326572 6.910017 -1.689631
-13.583841 9.556611 -1.653234
-15.210253 9.521201 -1.657627
-9.195780 6.732292 -1.678449
-10.014594 6.563421 -1.670343
-28.400299 31.698156 -1.535318
-37.304020 37.169651 -1.433546
-13.228242 15.373552 -1.711694
-15.245436 15.858580 -1.646351
-52.262577 46.624489 -1.360567
-42.336086 33.646385 -0.506335
-17.346760 16.079821 -1.603228
-20.691761 17.143969 -1.592969
-1.052106 0.711822 0.200556
-1.190328 0.774689 0.213030
-24.612251 18.118038 -1.560508
-30.082808 19.681511 -1.623524
-0.922233 0.996675 0.291486
-0.977046 1.012801 0.309900
-0.960635 1.079809 0.226642
-0.970281 1.046275 0.237483
-1.036557 0.890904 0.316699
-1.115271 0.920141 0.336462
-75.502518 70.272156 3.460278
-80.153992 66.502556 4.492023
-3.192293 3.575611 -1.797827
-3.418469 3.451662 -1.799273
-7.561795 5.498120 -1.716016
-8.178080 5.326639 -1.707005
-3.694864 3.246062 -1.777683
-3.946069 3.119238 -1.764815
-3.178381 2.920456 -1.793365
-3.375638 2.790705 -1.781575
-4.249814 2.915514 -1.760970
-4.513997 2.774144 -1.752631
-3.613818 2.588580 -1.765008
-3.858070 2.469931 -1.760589
-4.439260 4.944461 -1.787829
-4.813490 4.842556 -1.775488
-3.635876 4.251268 -1.779155
-3.891067 4.091870 -1.771425
-5.170855 4.560585 -1.747214
-5.605226 4.443197 -1.746421
-4.227290 3.893130 -1.759762
-4.572855 3.782128 -1.762987
-6.096665 4.231090 -1.739996
-6.502043 4.034634 -1.718733
-4.927347 3.561710 -1.750443
-5.243063 3.396246 -1.737749
-7.044593 7.852364 -1.763015
-7.747999 7.743745 -1.734218
-5.368829 6.235710 -1.773363
-5.861164 6.124607 -1.764783
-8.445462 7.469320 -1.709178
-9.280790 7.400275 -1.681903
-6.382722 5.888430 -1.746581
-6.907061 5.721280 -1.727191
-8.915513 10.003639 -1.732526
-9.725378 9.779375 -1.702885
-1.178283 0.841358 0.273862
-1.184583 0.809280 0.285007
-10.721766 9.571414 -1.675826
-11.951777 9.579157 -1.644723
-7.681884 7.139813 -1.719886
-8.306337 6.937398 -1.689979
-13.565095 9.607295 -1.654800
-15.176898 9.566819 -1.657212
-9.184098 6.768190 -1.680422
-9.987321 6.590511 -1.669095
-28.378929 31.875324 -1.540152
-37.174358 37.273918 -1.432985
-13.183756 15.419576 -1.712261
-15.203812 15.915031 -1.647362
-52.158978 46.827190 -1.361866
-1.068497 0.887112 0.189211
-17.300529 16.138319 -1.603687
-20.639336 17.210165 -1.593104
-1.049864 0.715124 0.200556
-1.187888 0.778425 0.213030
-24.511925 18.163137 -1.557383
-29.858957 19.669453 -1.613640
-0.919097 0.999567 0.291486
-0.973860 1.015865 0.309900
-0.957238 1.082821 0.226642
-0.966989 1.049318 0.237483
-1.033753 0.894156 0.316699
-1.112375 0.923640 0.336462
-75.250763 70.480293 3.458952
-79.895576 66.713043 4.489391
-3.184705 3.589792 -1.800108
-3.407609 3.462384 -1.799273
-7.549224 5.525336 -1.717190
-8.149784 5.344792 -1.704390
-3.684649 3.257653 -1.777683
-3.934784 3.130465 -1.764098
-3.167863 2.929183 -1.792534
-3.378137 2.810570 -1.788107
-4.246778 2.933139 -1.763774
-4.514883 2.794201 -1.756718
-3.610109 2.603161 -1.767409
-3.867388 2.492922 -1.769148
-4.413528 4.946885 -1.783331
-4.817259 4.876748 -1.783116
-3.633453 4.275676 -1.785064
-3.876887 4.102704 -1.770777
-5.157939 4.578091 -1.747747
-5.594272 4.463184 -1.747449
-4.220580 3.911572 -1.762300
-4.552146 3.789211 -1.759283
-6.077004 4.245759 -1.738017
-6.510799 4.068350 -1.724913
-4.909982 3.572655 -1.748044
-5.233975 3.413738 -1.738330
-7.023808 7.878871 -1.764084
-7.743138 7.787569 -1.738957
-5.350475 6.254029 -1.773819
-5.843243 6.144397 -1.765224
-8.424899 7.498446 -1.709828
-9.246686 7.420758 -1.679773
-6.365622 5.909785 -1.747008
-6.889053 5.742950 -1.727191
-8.902369 10.052381 -1.736562
-9.708555 9.823946 -1.705645
-1.175633 0.845056 0.273862
-1.182034 0.812998 0.285007
-10.697531 9.610364 -1.676871
-11.934002 9.626614 -1.646654
-7.662280 7.166608 -1.720615
-8.292054 6.969779 -1.691719
-13.528379 9.645244 -1.653905
-15.150129 9.616584 -1.657627
-9.158044 6.793476 -1.679436
-9.984691 6.633843 -1.672527
-28.331568 32.024227 -1.543429
-37.057064 37.390533 -1.432985
-13.160988 15.491302 -1.716043
-15.174340 15.984376 -1.649889
-51.075729 46.144669 -1.333605
-1.065704 0.890465 0.189211
-17.267170 16.208996 -1.605524
-20.571396 17.263393 -1.591897
-1.047612 0.718419 0.200556
-1.185437 0.782153 0.213030
-24.443541 18.231695 -1.556573
-29.802010 19.766476 -1.613946
-0.915952 1.002450 0.291486
-0.970663 1.018920 0.309900
-0.953831 1.085823 0.226642
-0.963688 1.052351 0.237483
-1.030939 0.897400 0.316699
-1.109467 0.927131 0.336462
-74.985329 70.675240 3.457060
-79.633553 66.920052 4.486593
-3.173411 3.599781 -1.800108
-3.398017 3.474391 -1.800025
-7.531827 5.549028 -1.717190
-8.132952 5.370371 -1.704390
-3.675778 3.270458 -1.778420
-3.927856 3.145130 -1.765533
-3.162617 2.942863 -1.795027
-3.360850 2.814187 -1.783208
-4.237541 2.946468 -1.763774
-4.510883 2.811333 -1.758762
-3.606344 2.617747 -1.769810
-3.845577 2.496112 -1.762145
-4.411906 4.976580 -1.789516
-4.800560 4.890491 -1.782571
-3.622426 4.289969 -1.786377
-3.866580 4.117611 -1.772074
-5.140664 4.591694 -1.746682
-5.577198 4.478330 -1.746421
-4.217937 3.933913 -1.766743
-4.546073 3.808356 -1.761752
-6.065217 4.265953 -1.738512
-6.501281 4.090845 -1.725864
-4.911008 3.597136 -1.752843
-5.226432 3.432253 -1.739493
-7.002923 7.905330 -1.765154
-7.726965 7.820252 -1.740988
-5.330800 6.270810 -1.773819
-5.827942 6.166967 -1.766547
-8.402765 7.526199 -1.710152
-9.238730 7.462159 -1.682816
-6.347022 5.929756 -1.747008
-6.878493 5.770835 -1.729240
-8.868136 10.077319 -1.735985
-9.680428 9.857217 -1.706197
-1.172973 0.848745 0.273862
-1.179475 0.816707 0.285007
-10.677567 9.653249 -1.678700
-11.906787 9.666551 -1.647136
-7.648300 7.198751 -1.722802
-8.270119 6.995793 -1.691719
-13.493171 9.684208 -1.653234
-15.114813 9.660922 -1.657004
-9.138233 6.823394 -1.679765
-9.970379 6.669556 -1.673775
-28.257195 32.143101 -1.545068
-36.916965 37.483986 -1.431988
-13.131495 15.555413 -1.718879
-15.137744 16.046448 -1.651574
-51.017776 46.384285 -1.336247
-1.062901 0.893808 0.189211
-17.216166 16.263157 -1.605524
-20.523167 17.333076 -1.592433
-1.045350 0.721706 0.200556
-1.182974 0.785873 0.213030
-24.330297 18.266386 -1.552522
-29.739765 19.859997 -1.613946
-0.912798 1.005322 0.291486
-0.967458 1.021964 0.309900
-0.950415 1.088814 0.226642
-0.960377 1.055373 0.237483
-1.028115 0.900634 0.316699
-1.106549 0.930611 0.336462
-74.739731 70.888428 3.456050
-79.377159 67.131172 4.484125
-3.163298 3.611130 -1.800869
-3.385787 3.483726 -1.799273
-7.520647 5.577351 -1.718755
-8.127515 5.403479 -1.707005
-3.666864 3.283235 -1.779156
-3.917956 3.157454 -1.765533
-3.152036 2.951533 -1.794196
-3.361814 2.832908 -1.788924
-4.226735 2.958683 -1.763073
-4.476468 2.809620 -1.747863
-3.595155 2.626884 -1.768209
-3.850100 2.516173 -1.768370
-4.398778 4.993305 -1.790640
-4.782475 4.902803 -1.781481
-3.612554 4.305686 -1.788347
-3.849735 4.125605 -1.770128
-5.130500 4.611702 -1.748279
-5.567626 4.499456 -1.747963
-4.194542 3.936710 -1.761666
-4.529708 3.818959 -1.759901
-6.048630 4.282733 -1.737522
-6.478530 4.105042 -1.723011
-4.896622 3.610268 -1.751643
-5.204419 3.441313 -1.735423
-6.981945 7.931731 -1.766223
-7.706513 7.848696 -1.742004
-5.317333 6.294981 -1.776098
-5.807200 6.183826 -1.766106
-8.380544 7.553883 -1.710477
-9.204486 7.482440 -1.680686
-6.332622 5.953693 -1.748290
-6.861828 5.793673 -1.729650
-8.854632 10.126023 -1.740021
-9.660500 9.898901 -1.708405
-1.170301 0.852426 0.273862
-1.176903 0.820409 0.285007
-10.650116 9.689419 -1.679222
-11.888677 9.713939 -1.649067
-7.627071 7.224100 -1.723166
-8.257116 7.029379 -1.693808
-13.464293 9.727718 -1.653458
-15.081038 9.706212 -1.656589
-9.119902 6.854448 -1.680422
-9.949377 6.700846 -1.673775
-28.245413 32.334110 -1.550640
-36.786434 37.586926 -1.431426
-13.095336 15.611862 -1.720770
-15.115917 16.124424 -1.655112
-50.637325 46.329647 -1.329126
-1.060088 0.897143 0.189211
-17.182312 16.333668 -1.607362
-20.461000 17.391010 -1.591763
-1.043078 0.724986 0.200556
-1.180499 0.789586 0.213030
-24.508394 18.521095 -1.569651
-29.567772 19.879856 -1.607220
-0.909636 1.008185 0.291486
-0.964242 1.024998 0.309900
-0.946990 1.091795 0.226642
-0.957057 1.058385 0.237483
-1.025280 0.903859 0.316699
-1.103620 0.934083 0.336462
-74.502205 71.109070 3.455419
-79.124771 67.345253 4.481904
-3.151937 3.621050 -1.800869
-3.376121 3.495672 -1.800025
-7.504655 5.602128 -1.719146
-8.113771 5.431163 -1.707753
-3.649657 3.288480 -1.775473
-3.903650 3.166242 -1.763380
-3.140115 2.958910 -1.792534
-3.344502 2.836421 -1.784025
-4.214368 2.969774 -1.761670
-4.491536 2.838622 -1.758081
-3.585414 2.637070 -1.767409
-3.848355 2.532273 -1.771483
-4.370483 4.992609 -1.785018
-4.758981 4.909544 -1.778212
-3.600212 4.318470 -1.789003
-3.843219 4.144586 -1.773371
-5.118838 4.630396 -1.749344
-5.556470 4.519353 -1.748991
-4.186273 3.953794 -1.763570
-4.539527 3.851537 -1.769158
-6.047738 4.310757 -1.741481
-6.477090 4.132650 -1.726339
-4.891364 3.630208 -1.754042
-5.201570 3.462916 -1.738330
-6.958284 7.955111 -1.766579
-7.687337 7.878499 -1.743358
-5.303767 6.319134 -1.778378
-5.786410 6.200619 -1.765665
-8.369898 7.592137 -1.713400
-9.193196 7.521307 -1.683120
-6.319548 5.978948 -1.749998
-6.849575 5.820255 -1.731289
-8.824075 10.155285 -1.740309
-9.637648 9.937717 -1.710061
-1.167617 0.856098 0.273862
-1.174320 0.824102 0.285007
-10.631306 9.733562 -1.681313
-11.856568 9.749980 -1.648825
-7.607180 7.250744 -1.723895
-8.236492 7.056561 -1.694156
-13.441694 9.775825 -1.654576
-15.043790 9.749221 -1.655758
-9.096753 6.881869 -1.680093
-9.918451 6.725438 -1.671903
-28.179043 32.463448 -1.552852
-36.689095 37.723782 -1.432361
-13.052593 15.660579 -1.721715
-15.078792 16.186394 -1.656797
-50.957664 46.917992 -1.343324
-1.057265 0.900469 0.189211
-17.151072 16.406885 -1.609505
-20.406267 17.455200 -1.591763
-1.040795 0.728260 0.200556
-1.178013 0.793290 0.213030
-24.513618 18.646399 -1.574281
-29.490286 19.962576 -1.606303
-0.906464 1.011037 0.291486
-0.961017 1.028022 0.309900
-0.943555 1.094764 0.226642
-0.953727 1.061387 0.237483
-1.022436 0.907076 0.316699
-1.100681 0.937546 0.336462
-74.252502 71.317833 3.454283
-78.873360 67.559700 4.479764
-3.135737 3.625311 -1.797827
-3.365123 3.506261 -1.800025
-7.491715 5.629223 -1.720320
-8.096670 5.456625 -1.707753
-3.640681 3.301185 -1.776210
-3.899493 3.183181 -1.766251
-3.132117 2.970019 -1.793365
-3.346740 2.856329 -1.790557
-4.206540 2.984090 -1.762372
-4.458727 2.837691 -1.747863
-3.577113 2.648320 -1.767409
-3.841923 2.545359 -1.772261
-4.362303 5.015032 -1.788391
-4.750237 4.931373 -1.780936
-3.581835 4.323918 -1.786377
-3.830180 4.156639 -1.773371
